NCOLS 305
NROWS 25
XLLCORNER 66.968705965
YLLCORNER 28.433038125
CELLSIZE 0.0892857 
NODATA_value -9999 
1565.23813611415 1725.69576454125 1929.33122906911 1976.40853518907 2113.63764001449 2317.81975889459 2499.25188913923 2633.58667289061 2631.65475715149 2458.97944623812 2355.53804581246 2225.75678087928 2033.81376923687 1956.18630685663 1923.98704379001 1826.32071227225 1772.3344309723 1737.82309659413 1709.30508489846 1698.31201881787 1646.47289680081 1612.95322361475 1612.82172011769 1529.70364603151 1450.5020217603 1487.78154401469 1499.81865630701 1488.36017526637 1511.06588271165 1378.55174448634 1263.57681139931 1261.52755465107 1147.10425223855 1138.21881581435 1240.65636797869 1024.41540127021 694.517158110937 535.662020220332 495.87830638585 328.720963959114 188.079703611388 153.701869305963 138.464210355434 137.642089290674 136.774321515451 136.855534955503 137.774321515451 137.55025138714 136.796550731267 136.482620860397 135.717644572487 134.567425077517 132.592612503776 132.551283486633 134.481848706378 137.401874628676 138.801709768443 139.136540050043 141.179062208417 144.324966071087 147.467211943149 149.914735019202 153.460656830648 156.9871280099 159.988361486644 163.09331533454 164.581208666772 166.108892513029 168.653416789645 170.133842469533 166.379645635806 166.783260400674 168.860062024956 170.012089810754 171.305270839616 173.464982984772 175.93947374867 178.706238887193 180.330147337457 181.397673394929 183.043462949997 185.203910472208 186.757772847253 189.521539410553 193.618127767447 196.097734991918 200.206899488042 206.16838551896 209.523820851611 213.29766884047 215.73601445461 218.950299486998 222.197559577356 225.492444051413 229.281087591321 233.535296424597 237.205887167615 240.401846707148 244.337233237901 248.532335750118 253.644884202114 256.024032067192 259.28447144732 262.371267552629 265.290066841324 267.772236078973 272.593341760335 280.438008817794 289.378871112703 296.93782468634 307.874133419529 335.506406881124 393.293620972054 589.165549610649 738.11154597229 1031.59743595985 1083.35988372395 1103.3261585644 1402.15367370097 1322.8651368545 1195.71869933106 1304.21200890641 1530.89018214553 1468.98047582862 1803.72855366065 1844.14837381064 1441.13950066804 1697.16814393851 2076.22532350146 2159.80963313948 2222.65176098693 2509.30559628572 2916.20258060678 2875.52689595861 2551.86008859627 2523.43806817564 2828.63582461327 3698.04371761621 4546.56994288653 3693.75739589046 2600.75786481801 3268.26737592447 4414.12045729152 3783.59292125001 4302.41018076593 5303.870239964 5159.36590987199 5130.61689482839 5373.33536561756 -9999 -9999 -9999 -9999 -9999 -9999 -9999 -9999 -9999 -9999 -9999 -9999 -9999 -9999 -9999 -9999 -9999 -9999 -9999 -9999 -9999 -9999 -9999 -9999 -9999 -9999 -9999 -9999 -9999 -9999 -9999 -9999 -9999 -9999 -9999 -9999 -9999 -9999 -9999 -9999 -9999 -9999 -9999 -9999 -9999 -9999 -9999 -9999 -9999 -9999 -9999 -9999 -9999 -9999 -9999 -9999 -9999 -9999 -9999 -9999 -9999 -9999 -9999 -9999 -9999 -9999 -9999 -9999 -9999 -9999 -9999 -9999 -9999 -9999 -9999 -9999 -9999 -9999 -9999 -9999 -9999 -9999 -9999 -9999 -9999 -9999 -9999 -9999 -9999 -9999 -9999 -9999 -9999 -9999 -9999 -9999 -9999 -9999 -9999 -9999 -9999 -9999 -9999 -9999 -9999 -9999 -9999 -9999 -9999 -9999 -9999 -9999 -9999 -9999 -9999 -9999 -9999 -9999 -9999 -9999 -9999 -9999 -9999 -9999 -9999 -9999 -9999 -9999 -9999 -9999 -9999 -9999 -9999 -9999 -9999 -9999 -9999 -9999 -9999 -9999 -9999 -9999 -9999 -9999 -9999 -9999 -9999 -9999 -9999 -9999 -9999 -9999 -9999 -9999 -9999 -9999
1624.10130432909 1820.41094454272 1874.29805271613 2075.95485871362 2226.64769728875 2324.98388778127 2481.39524817457 2552.19725276294 2623.13474780333 2530.76218644491 2359.58051030763 2185.29032092627 2022.83182679118 1910.6978011619 1882.08256567659 1838.17375318881 1840.31419234933 1780.53067563331 1734.15797034619 1684.89684157557 1591.3134386827 1477.36940196317 1398.50820038201 1399.7244450807 1407.68517770936 1397.58742498765 1398.65090870473 1440.27135948098 1381.16754916375 1304.01674375055 1289.85564976824 1327.18714691877 1305.27147554372 1270.15689222727 1315.8230910925 977.369397970148 711.597849982432 585.067851214239 512.51371424941 333.06338490171 193.711978848423 148.46054380354 134.630541857095 133.413381977478 133.413381977478 133.506505734431 134.582422088506 134.482620860428 133.958853278789 134.193109666538 131.870902599693 129.271669531789 129.519794679704 131.305280386177 134.790086235503 137.211012853335 137.81431346383 140.806019982046 143.167652894825 145.618150042723 149.684069401099 152.716752851656 156.549841143792 159.55318537785 162.014858843472 163.122941622981 163.677462399232 162.763856596973 161.608382504558 161.646707447843 162.700751055708 164.730046269209 166.872902957468 169.027669029265 171.305270839616 173.606471370754 176.297675204874 178.073611440936 178.835262640777 180.019554280912 181.666441887597 184.3916910663 187.971178501064 191.945226833179 195.946672858573 199.117392287097 202.029326648088 205.243611680477 208.435512507513 211.301466657872 213.739812272012 216.9540973044 220.542442591592 224.745786821817 228.535533832265 232.463868080483 237.367453934337 240.414327460132 242.841451032833 245.686461817148 248.742914134088 252.726276372527 256.486507743291 258.346004160267 261.064339339172 263.000555647495 266.084382092315 271.907017228906 277.917016663965 283.646817982862 296.010016343193 309.25932408211 325.142717986699 353.662561585177 409.708173676998 578.405851321491 698.480791453463 696.593299854061 669.882082899405 744.186587607504 828.749370604981 865.109018710497 1115.40738400069 1349.14112030432 1745.21609410228 1976.27324686313 1705.3792627618 1386.74036437749 1794.22264654283 1926.50649162412 1666.90313366237 2054.78217283337 2292.60332864048 2634.202611944 2260.96786340602 1845.61755833681 2475.89931500112 3268.23998047223 3006.90856097222 2032.85002530838 2132.83286075647 2636.8891861645 3552.37576414483 3784.64531677562 5053.28636858766 5274.04773103843 5153.85136340972 5053.55195365232 5155.40546732398 5130.37946928889 4924.15353081436 -9999 -9999 -9999 -9999 -9999 -9999 -9999 -9999 -9999 -9999 -9999 -9999 -9999 -9999 -9999 -9999 -9999 -9999 -9999 -9999 -9999 -9999 -9999 -9999 -9999 -9999 -9999 -9999 -9999 -9999 -9999 -9999 -9999 -9999 -9999 -9999 -9999 -9999 -9999 -9999 -9999 -9999 -9999 -9999 -9999 -9999 -9999 -9999 -9999 -9999 -9999 -9999 -9999 -9999 -9999 -9999 -9999 -9999 -9999 -9999 -9999 -9999 -9999 -9999 -9999 -9999 -9999 -9999 -9999 -9999 -9999 -9999 -9999 -9999 -9999 -9999 -9999 -9999 -9999 -9999 -9999 -9999 -9999 -9999 -9999 -9999 -9999 -9999 -9999 -9999 -9999 -9999 -9999 -9999 -9999 -9999 -9999 -9999 -9999 -9999 -9999 -9999 -9999 -9999 -9999 -9999 -9999 -9999 -9999 -9999 -9999 -9999 -9999 -9999 -9999 -9999 -9999 -9999 -9999 -9999 -9999 -9999 -9999 -9999 -9999 -9999 -9999 -9999 -9999 -9999 -9999 -9999 -9999 -9999 -9999 -9999 -9999 -9999 -9999 -9999 -9999 -9999 -9999 -9999 -9999 -9999 -9999 -9999 -9999 -9999 -9999 -9999 -9999 -9999
1703.56428442403 1955.0505183029 1993.35980060381 2066.93832569148 2228.31597350073 2297.87501026463 2315.0473743822 2542.61603310942 2702.6204455838 2762.1515028795 2634.95967392124 2391.47668037775 2159.67084819765 1956.29509872834 1820.31595931125 1716.48168233339 1615.91593390496 1567.23897283505 1544.5674716229 1482.88541650707 1364.3878085421 1295.49503960771 1271.37850513187 1271.9463669117 1314.08574263015 1346.15872964379 1380.09936791277 1406.77544000918 1407.10200038905 1365.35015743273 1362.0986482619 1325.16566150054 1300.6339321707 1286.24157373443 1222.7401288182 1134.86285372316 829.039924583923 635.376802884974 511.050864678039 329.610001936224 191.975743878398 144.54148131965 130.647446742055 129.550390965274 129.56383430051 129.70854992217 131.465104679663 131.952464324834 131.216865152836 130.462638488901 128.854426132661 127.781917150255 129.197845520825 131.381033602755 133.698484821632 134.866204131308 137.301035022016 141.203024007132 144.025079205961 146.870964767508 150.37903931207 151.18716998074 153.807857121304 155.036450130184 155.350934250707 156.604155042577 157.490549161797 156.977772318237 157.663888741313 159.590987398321 161.544783256873 163.658617925095 166.019557463098 168.190491615586 170.617735123058 172.449461293287 174.154818516645 176.090792868397 177.876697592653 180.130727932437 182.887497612378 187.721560730602 192.800842787318 196.212988712035 198.515754872462 200.658611560721 202.24527761817 205.225902503974 208.087181625499 210.230038313758 212.668383927897 215.882668960286 219.192549653379 222.816749917987 226.888643510106 231.032029335398 235.241987413397 238.905695600034 242.842437574431 244.693368950986 246.579116663497 248.38897921746 251.922981893143 255.526920323946 257.102906870407 258.217644806274 261.441868643807 266.852776466823 270.762567852616 275.239293937731 283.894514223476 293.560854323165 305.707574521726 313.127272644105 336.41269441794 394.663756837572 409.631453928791 472.060973401989 453.254816647328 455.658474279108 478.118727376231 585.647986932122 964.384609176929 1294.58173908307 1494.83178737843 1729.15632202537 1925.92002259152 1450.26638135605 1243.93002526576 1759.0650489805 1432.40012340661 1729.56287002222 2153.05599374423 2046.5884352619 1715.4463157663 1671.09161027425 2120.13246014995 2133.94933842217 2173.2605545242 1989.54186339422 2784.79558276259 3188.27128871059 3498.9059958489 4320.34613030406 5034.37311938048 5132.6620859674 4927.64468583864 4439.8545005566 4967.40528165078 5093.55861648691 4856.57836450341 4874.44792064405 5132.70585307131 5059.91152709268 -9999 -9999 -9999 -9999 -9999 -9999 -9999 -9999 5374.09124150332 5067.81419739666 5059.12643211504 5371.50960796344 -9999 -9999 -9999 -9999 -9999 -9999 -9999 -9999 -9999 -9999 -9999 -9999 -9999 -9999 -9999 -9999 -9999 -9999 -9999 -9999 -9999 -9999 -9999 -9999 -9999 -9999 -9999 -9999 -9999 -9999 -9999 -9999 -9999 -9999 -9999 -9999 -9999 -9999 -9999 -9999 -9999 -9999 -9999 -9999 -9999 -9999 -9999 -9999 -9999 -9999 -9999 -9999 -9999 -9999 -9999 -9999 -9999 -9999 -9999 -9999 -9999 -9999 -9999 -9999 -9999 -9999 -9999 -9999 -9999 -9999 -9999 -9999 -9999 -9999 -9999 -9999 -9999 -9999 -9999 -9999 -9999 -9999 -9999 -9999 -9999 -9999 -9999 -9999 -9999 -9999 -9999 -9999 -9999 -9999 -9999 -9999 -9999 -9999 -9999 -9999 -9999 -9999 -9999 -9999 -9999 -9999 -9999 -9999 -9999 -9999 -9999 -9999 -9999 -9999 -9999 -9999 -9999 -9999 -9999 -9999 -9999 -9999 -9999 -9999 -9999 -9999 -9999 -9999 -9999 -9999 -9999 -9999 -9999 -9999 -9999 -9999 -9999 -9999 -9999
2010.86389436647 2308.23405418525 2375.99124987554 2447.3814978686 2080.12805088674 1980.90566080998 2165.52226150223 2473.7030451458 2482.03600838446 2518.64157762141 2482.96357776759 2347.77469077422 2156.49929295282 1972.87979139846 1845.47395753673 1739.16721638341 1594.81548001257 1499.63662237958 1437.39269999313 1383.45031341398 1330.66352858652 1301.55331408596 1264.90835008767 1270.61979036604 1312.64065146223 1248.97801167962 1278.63031733958 1316.61667805152 1401.9354586367 1386.92782136088 1457.213679396 1412.28530025848 1332.51119797251 1364.18203364437 1368.68176596764 1397.73523214082 822.861564079026 615.047493691983 452.018042723597 272.875533720039 168.651140965219 137.037642692801 127.348941934348 127.630999147552 127.418144717479 127.212679858475 128.131466418423 128.066595608067 127.165408164143 125.349737501185 125.622892869582 126.716153674467 129.156580059558 131.174182357768 131.630603558928 134.327284702013 139.083641570369 141.710557928364 142.857401085347 144.64109710717 147.239914436525 148.225219227736 149.552444030704 149.243510759719 149.275748589284 151.234166748299 153.751661360824 155.363125817043 157.158619516203 159.301476204462 160.577410849431 162.58718958098 165.148192829276 166.912486296852 167.907313888563 169.542453356217 172.097510101399 174.811250162732 177.841000165496 181.114014992297 186.01923550165 190.522156910911 192.948989047742 195.242262055503 197.193343813891 199.569334042389 202.732870035833 205.138898350834 207.015753281384 209.288346062682 212.090430619797 214.994525153142 218.336965300628 221.588110796077 224.867033443295 228.378869551867 232.317213574913 236.372624463437 239.732213455173 242.946498487562 244.142783257174 245.567297009337 248.99162469222 250.776501430269 252.438901261787 255.131809589747 257.631026064647 261.081756358953 264.296041391341 269.93189332475 276.702456711551 282.602121584988 290.11724867917 296.858293416176 299.648492821495 311.937264142834 316.52632063101 364.143473525153 425.624107330111 507.318516578468 573.546407153614 574.153979129316 634.972749372265 720.407489369454 907.502247355338 1377.78567781921 1771.28897993026 1582.66256207626 1182.15206823248 1296.185036428 1452.90669105376 1549.07403698278 1775.43248559622 1505.40824263167 1258.40840358179 1517.73444104058 1646.86213873327 1486.02264764224 1694.85498067864 2081.60362462671 2452.09102233812 3164.32777034377 4482.24658567506 5268.83291299717 5154.04141704345 5089.26020661123 4818.50504739096 4274.13477604869 4389.05860469203 4845.51601742995 4700.95901757596 4620.07134797245 4879.56441641408 4929.76564214799 4673.2987848581 5034.72913137173 -9999 -9999 -9999 -9999 -9999 5441.13681129255 5343.74252948823 5076.60123551406 4998.6520644271 5282.38218138561 5496.16921122316 5227.28915890234 5198.67948723911 5625.43266611473 -9999 -9999 -9999 -9999 -9999 -9999 -9999 -9999 -9999 -9999 -9999 -9999 -9999 -9999 -9999 -9999 -9999 -9999 -9999 -9999 -9999 -9999 -9999 -9999 -9999 -9999 -9999 -9999 -9999 -9999 -9999 -9999 -9999 -9999 -9999 -9999 -9999 -9999 -9999 -9999 -9999 -9999 -9999 -9999 -9999 -9999 -9999 -9999 -9999 -9999 -9999 -9999 -9999 -9999 -9999 -9999 -9999 -9999 -9999 -9999 -9999 -9999 -9999 -9999 -9999 -9999 -9999 -9999 -9999 -9999 -9999 -9999 -9999 -9999 -9999 -9999 -9999 -9999 -9999 -9999 -9999 -9999 -9999 -9999 -9999 -9999 -9999 -9999 -9999 -9999 -9999 -9999 -9999 -9999 -9999 -9999 -9999 -9999 -9999 -9999 -9999 -9999 -9999 -9999 -9999 -9999 -9999 -9999 -9999 -9999 -9999 -9999 -9999 -9999 -9999 -9999 -9999 -9999 -9999 -9999 -9999 -9999 -9999 -9999 -9999 -9999 -9999 -9999 -9999 -9999 -9999 -9999 -9999 -9999 -9999
1796.0297460687 2098.16221668093 2455.67072149243 2850.69844892685 2098.86567264962 1781.81724637994 1735.60995403933 1906.20554816995 1772.35291973536 1779.34391640148 2000.87835345355 2125.38626675467 2058.83428446979 1917.75315052615 1731.17694968608 1602.98057244972 1489.78623161403 1391.85867020704 1391.89233710961 1350.95673243583 1284.50409610124 1245.4221245184 1195.45439522149 1137.23600960973 1182.36296050744 1231.75513799374 1270.4118684364 1320.64693111572 1390.0251771778 1393.26284155718 1475.34942199186 1500.00596282501 1322.87140325899 1333.03233381303 1438.94072126605 1279.10782370932 721.273481449174 579.994447394181 406.654087112605 224.937214806547 145.840287775381 127.593120187822 124.496233309671 126.154834427639 125.268335828131 124.330021222576 124.972275841138 124.892299258569 122.883060595014 122.511339769407 124.639060462027 125.842628494384 128.324070874421 129.278120924053 130.52487938784 133.894861248576 137.480946183252 138.255870289949 139.300405306412 141.718662363837 143.611335154587 144.141248332204 145.130493253155 146.240470483728 148.154824881079 149.971901120818 152.172905274692 153.930757934955 155.987595448823 157.942922732112 159.457949409108 160.838385726281 162.652368724423 164.243621227037 167.305270839616 169.224063763938 170.886476324202 174.23319745508 178.430769547314 183.263706865108 187.475981437241 190.069706304828 191.363122634871 193.73840803329 195.457945078344 198.11541547101 201.307447572141 204.388634513344 206.054506955924 209.014564896412 211.869098775815 214.144390413986 216.954097304446 219.984384759866 223.231506721746 226.361392197587 229.913015369131 233.01652055936 236.156988884857 239.371273917246 241.313683159063 245.079582808691 246.819642191395 246.421307149339 247.590333641549 250.296044573604 253.230202288903 255.901557747963 259.148677412689 263.765329467812 268.892327206024 274.681085543234 280.410031760476 284.865847059653 288.182775935535 294.879215628922 290.682617024189 299.287383681705 323.821931611733 391.090924595271 525.247846281895 598.387972561386 631.460595125129 634.088860823253 652.402054040379 935.444417466928 1343.27663377493 1307.70347503085 1305.42862252146 1196.85312921914 1252.82069756434 1097.14601273539 1259.50555556537 1306.59517894063 1387.63867905886 1557.23138049384 1461.95499135419 1363.42144582789 1621.65278294191 2097.90722678604 2667.16150228727 3042.79293126678 3838.34777930211 5135.81633222377 5038.01169552568 4724.98537213634 4694.3976981156 4345.58347052975 3851.1571024571 4475.07759759917 4887.66723243573 4294.26130158515 4555.27363154296 4790.14742075984 4508.47701009956 4719.36574238054 4711.69890296478 -9999 -9999 -9999 -9999 4921.67443262287 4988.96922042714 4978.09801493898 4871.82359709826 5104.24369439618 5418.52184851338 5162.40994188712 5072.16672956874 5553.41344612715 -9999 -9999 -9999 -9999 -9999 -9999 -9999 -9999 -9999 -9999 -9999 -9999 -9999 -9999 -9999 -9999 -9999 -9999 -9999 -9999 -9999 -9999 -9999 -9999 -9999 -9999 -9999 -9999 -9999 -9999 -9999 -9999 -9999 -9999 -9999 -9999 -9999 -9999 -9999 -9999 -9999 -9999 -9999 -9999 -9999 -9999 -9999 -9999 -9999 -9999 -9999 -9999 -9999 -9999 -9999 -9999 -9999 -9999 -9999 -9999 -9999 -9999 -9999 -9999 -9999 -9999 -9999 -9999 -9999 -9999 -9999 -9999 -9999 -9999 -9999 -9999 -9999 -9999 -9999 -9999 -9999 -9999 -9999 -9999 -9999 -9999 -9999 -9999 -9999 -9999 -9999 -9999 -9999 -9999 -9999 -9999 -9999 -9999 -9999 -9999 -9999 -9999 -9999 -9999 -9999 -9999 -9999 -9999 -9999 -9999 -9999 -9999 -9999 -9999 -9999 -9999 -9999 -9999 -9999 -9999 -9999 -9999 -9999 -9999 -9999 -9999 -9999 -9999 -9999 -9999 -9999 -9999 -9999 -9999 -9999
1920.29188044791 2234.77414808132 2242.15015257062 2410.75876427739 1944.37644699098 1622.42083526809 1393.23205236636 1217.03519530012 1239.51671847303 1283.97964824574 1360.24557132254 1551.22481727878 1846.78328619937 1984.52856220909 1759.7064456496 1506.56200887073 1351.98061153514 1187.46473763527 1142.839321109 1138.55216079229 1081.1138709691 1025.2580400485 1053.04838248242 1079.42249858157 1152.64341707342 1226.60932396065 1219.96873312416 1219.53347500451 1364.64325266868 1525.41980839116 1540.16388179304 1434.05528399454 1243.60326973169 1261.11359076139 1478.02364378442 1120.10910558652 610.416443886199 460.902826871666 322.900121555515 190.639608921462 134.914727182868 123.548557627233 122.210799945617 123.606262417995 123.125479139902 122.135264235825 122.155911210117 121.695198813533 119.790690027364 120.833117784034 122.649589856517 124.444200736006 126.535405538874 127.417444893876 129.739837729566 132.266228158363 134.061916181023 135.208882041256 137.149275534885 138.694939926446 140.353898866889 141.791699064037 143.030860025606 144.660833864894 146.444336074938 148.366780124766 150.297681569369 152.070080528902 154.11370297491 155.498390052898 157.436740440317 158.920034062731 161.59141759046 164.208509895715 166.872902957529 169.082329807049 172.006734682255 176.197153337138 180.601452543576 184.308920158812 187.059953987241 188.78789806454 190.485448865015 192.247036483903 194.676297712037 197.282405604256 199.596958766 202.730039904897 205.11216779108 208.456201416767 210.158609969674 212.668383927943 215.882668960332 218.807589921131 221.82222279249 224.440525528881 226.994381355501 229.637814197481 232.361184776533 235.517928422877 238.727988197566 241.397821314689 242.970144392449 243.799771577053 244.430749979519 245.918722765175 248.396030578576 251.078110652532 255.097908617852 259.375321783399 263.34667458663 268.039271672184 272.815899932474 277.159156070913 279.999829919873 282.386638266344 279.566566680956 284.409844279983 297.019149570549 317.592545269005 356.312141245574 430.009178280284 541.847328858638 612.473275711009 535.890960072191 556.912800440199 853.774772661974 982.498135785364 1223.97293938787 1213.0695558102 1053.4199223184 1176.52212232308 1242.75796369861 1448.04607195893 1755.16253809968 2110.81807701828 1927.68841151231 1707.50299590847 1737.10001298446 2041.99899392115 2656.72571147556 2718.21318523691 3063.23652012488 3652.85227279402 3661.34164732112 3523.35471456802 3829.63110758401 3684.96681075764 3114.80900840327 3582.3273665891 4534.05270186957 4205.93802988618 3941.765745302 4532.69692197893 4324.3270396436 4042.38324946807 4500.91014446168 4894.77998798654 -9999 -9999 4578.69721306585 4334.66031398489 4410.35834628897 4634.50340564496 4800.39438797203 5067.13339477156 5251.26109427611 4991.28274003835 4719.3576608079 5254.41371335484 -9999 -9999 -9999 -9999 -9999 -9999 -9999 -9999 -9999 -9999 -9999 -9999 -9999 -9999 -9999 -9999 -9999 -9999 -9999 -9999 -9999 -9999 -9999 -9999 -9999 -9999 -9999 -9999 -9999 -9999 -9999 -9999 -9999 -9999 -9999 -9999 -9999 -9999 -9999 -9999 -9999 -9999 -9999 -9999 -9999 -9999 -9999 -9999 -9999 -9999 -9999 -9999 -9999 -9999 -9999 -9999 -9999 -9999 -9999 -9999 -9999 -9999 -9999 -9999 -9999 -9999 -9999 -9999 -9999 -9999 -9999 -9999 -9999 -9999 -9999 -9999 -9999 -9999 -9999 -9999 -9999 -9999 -9999 -9999 -9999 -9999 -9999 -9999 -9999 -9999 -9999 -9999 -9999 -9999 -9999 -9999 -9999 -9999 -9999 -9999 -9999 -9999 -9999 -9999 -9999 -9999 -9999 -9999 -9999 -9999 -9999 -9999 -9999 -9999 -9999 -9999 -9999 -9999 -9999 -9999 -9999 -9999 -9999 -9999 -9999 -9999 -9999 -9999 -9999 -9999 -9999 -9999 -9999 -9999 -9999
2059.99588699399 2197.25007115576 2190.11370355795 2091.04074772069 1708.70405649697 1395.9374842304 1128.86906610346 974.130270556739 994.993546562151 996.710902678268 976.81775884593 1045.65996000666 1279.5709296602 1580.84127483648 1658.49951004787 1693.52083367262 1362.83764183935 1174.80011080105 1041.34203234139 991.098713656987 969.217173978567 977.049080712099 1004.7212056003 1011.29843697559 1052.44533417948 1170.59897575743 1204.85710538598 1285.75231941166 1459.66332593381 1536.25900173574 1434.84545277106 1277.44915682293 1177.46309723268 1287.99490595635 1421.20690190955 921.647450976767 557.269395879281 366.536716419938 233.036024954551 162.380751104724 130.841766790551 120.514216315793 119.488611321394 120.426968073187 120.982622451673 119.951492522981 119.335969537212 118.266242434867 117.789458688151 118.673467666874 119.869117868995 122.011974557254 123.862018909384 125.798846847174 127.938843392327 129.284108202741 130.792290203865 132.876239091624 136.014635736247 137.618327453105 139.228378452332 140.720270719923 141.791699064052 143.230051042565 145.152067658301 146.759013272978 148.658621107342 150.472681732429 152.081254296015 153.692464196563 156.170596140401 158.373372620387 161.542985396953 165.7556264665 168.901149119111 171.467502498161 174.187317374907 178.097975530521 181.089943609598 183.51575805471 185.365805613187 186.973835836309 189.303610502117 191.589428305432 194.600756583311 197.342305834836 199.02440176321 201.658611560782 203.954100486663 206.9443249373 209.087181625559 211.966658655748 215.818833068621 218.519473708226 220.658608378596 222.801465066855 224.579543568073 226.978106034701 229.222442679228 231.830909212844 235.004359829544 237.106924418418 238.793869432264 240.712668720959 242.081826270227 244.047967794408 245.655849600904 248.025516102046 252.104980724766 256.266533698908 258.934627845196 262.269786017714 266.445883090244 270.257853431711 270.966885244439 271.460090976904 272.323358183552 278.566678400664 286.640533414741 296.982107986821 306.976746187495 323.074239153103 373.273411665082 505.03664722147 511.458215803905 427.870691851118 512.076817385386 799.817984397906 892.047554594436 1138.40386944968 1079.13780677716 1497.12034323205 1461.40388199209 1584.08731180191 1871.55755943226 2144.35400472065 2217.45971644207 2040.76106642924 1939.54934365482 1972.21999297639 1997.54627812589 2094.40109310903 2407.36094450678 2500.15843563847 2456.92063875904 2465.73917768611 2715.42376132699 2668.35288783376 2432.33752703354 2591.04280767902 3659.72359683144 3613.1139888143 3113.17695207291 3523.95569387561 3794.4939230672 3512.314061867 3952.07909149251 4733.60371906904 5366 4871.29768348742 4788.07241038881 4586.44419859871 4417.14285952786 4178.70652677148 4131.8465377724 4289.75257991162 4614.05248197772 4704.58941712523 4514.646895244 5010.35196097488 5394.58833553994 5196 -9999 -9999 -9999 -9999 -9999 -9999 -9999 -9999 -9999 -9999 -9999 -9999 -9999 -9999 -9999 -9999 -9999 -9999 -9999 -9999 -9999 -9999 -9999 -9999 -9999 -9999 -9999 -9999 -9999 -9999 -9999 -9999 -9999 -9999 -9999 -9999 -9999 -9999 -9999 -9999 -9999 -9999 -9999 -9999 -9999 -9999 -9999 -9999 -9999 -9999 -9999 -9999 -9999 -9999 -9999 -9999 -9999 -9999 -9999 -9999 -9999 -9999 -9999 -9999 -9999 -9999 -9999 -9999 -9999 -9999 -9999 -9999 -9999 -9999 -9999 -9999 -9999 -9999 -9999 -9999 -9999 -9999 -9999 -9999 -9999 -9999 -9999 -9999 -9999 -9999 -9999 -9999 -9999 -9999 -9999 -9999 -9999 -9999 -9999 -9999 -9999 -9999 -9999 -9999 -9999 -9999 -9999 -9999 -9999 -9999 -9999 -9999 -9999 -9999 -9999 -9999 -9999 -9999 -9999 -9999 -9999 -9999 -9999 -9999 -9999 -9999 -9999 -9999 -9999 -9999 -9999 -9999 -9999
1904.66900512708 1982.16099155955 1999.29628557243 1980.33149133509 1730.93841553625 1211.12821497254 866.59743913482 723.425641476995 717.118136629489 756.010738482825 797.557573304358 740.925424888537 758.935161052529 972.513201555396 1298.27068460568 1529.98016453997 1318.64017613577 1093.88126796942 989.339916353331 944.782767747746 976.121850419099 1079.90433061894 1139.62241309552 1167.8836067066 1221.80620827921 1284.15320627888 1289.93566506524 1374.83660933292 1374.88543564128 1331.16357061378 1293.77381317893 1242.79454127453 1217.92743700521 1399.84760672883 1249.88086862518 675.836361704142 447.27044413574 293.703503982364 195.722191711785 144.034736340585 123.577471322418 117.117658903897 116.274326289051 117.212683040844 118.264541193129 117.146396882842 115.634263239272 115.40321693233 116.189506823045 117.155861496171 118.049333092124 119.869117869026 122.099417380486 124.207091229984 125.573619396585 127.560226444237 129.733850450953 132.275296679938 134.864959570229 136.540481809729 138.089990935609 139.648842375808 140.890246871304 142.52278377884 143.863127408197 145.444336074969 147.587192763228 149.452825284754 151.448130710062 153.590987398321 156.600766129871 159.557636982649 164.908141609366 168.428565138134 171.769731898418 173.107324824037 174.886476324202 177.311717585483 178.912448250331 181.587116906539 183.765080019089 186.10545410081 188.864622697946 191.504110430421 193.603410524556 195.726245269834 197.874725094274 200.587183216668 202.882672142549 205.872896593186 208.355698262291 211.776631433418 214.912440534243 217.370569259528 219.921501879145 221.929852109832 223.565330942126 224.675806948885 226.084711018296 228.69077287261 231.293871023403 233.390019067392 235.004359829605 237.180925761081 239.566037430499 242.430270461721 245.115263198709 247.236079652616 249.499732761936 252.607616034829 256.021718284781 259.23600331717 261.951618981125 262.390565276662 261.995905908738 264.7047461316 270.532849099229 276.67835019996 280.050707506216 283.338816869776 286.694712508973 288.523453392081 297.345953545538 352.527527248004 422.81000434176 374.244254117162 490.301669555709 896.173091792994 970.629429046268 1141.9248728086 1169.98422832168 1224.88319541037 1309.01210659826 1646.39895839342 1918.92193511891 1966.22808930511 2003.02505866119 1793.79166115527 1801.6908896848 1869.62232296427 1747.84140211468 1643.93972138176 1906.37029441439 1925.44874522514 1791.06793601706 1861.95801501209 1945.35068058929 1930.19515224769 1977.30278099901 2307.46909176273 3244.10307972246 2875.25423489332 2429.72948588491 2639.29646053078 3272.24906647543 3351.40772686288 3657.25730240046 4903.20076441273 5105.65734364309 4632.94010348493 4821.35888428287 4781.71919766874 4725.19233301961 4249.92875529949 4067.13356126622 3651.07881878293 3550.99454584461 3910.04920299627 4338.68725507805 4725.14282855526 4996.45089155047 4907.40014595703 4801.53097995158 5066.07108725011 5049 -9999 -9999 -9999 -9999 -9999 -9999 -9999 -9999 -9999 -9999 -9999 -9999 -9999 -9999 -9999 -9999 -9999 -9999 -9999 -9999 -9999 -9999 -9999 -9999 -9999 -9999 -9999 -9999 -9999 -9999 -9999 -9999 -9999 -9999 -9999 -9999 -9999 -9999 -9999 -9999 -9999 -9999 -9999 -9999 -9999 -9999 -9999 -9999 -9999 -9999 -9999 -9999 -9999 -9999 -9999 -9999 -9999 -9999 -9999 -9999 -9999 -9999 -9999 -9999 -9999 -9999 -9999 -9999 -9999 -9999 -9999 -9999 -9999 -9999 -9999 -9999 -9999 -9999 -9999 -9999 -9999 -9999 -9999 -9999 -9999 -9999 -9999 -9999 -9999 -9999 -9999 -9999 -9999 -9999 -9999 -9999 -9999 -9999 -9999 -9999 -9999 -9999 -9999 -9999 -9999 -9999 -9999 -9999 -9999 -9999 -9999 -9999 -9999 -9999 -9999 -9999 -9999 -9999 -9999 -9999 -9999 -9999 -9999 -9999 -9999 -9999 -9999 -9999 -9999 -9999
1823.39893756341 1889.28742796192 1719.00786895069 1386.6268108051 1350.62144568028 1083.6066127974 888.462430774033 606.709294168934 538.536171543691 515.493120480575 567.799901601596 562.87086308474 618.016692190087 908.172010815329 1180.53136676621 1205.00081929846 1058.24787277651 1058.98551137161 995.055820542477 933.282659572236 1046.00807892277 1193.01644687953 1280.20771280345 1234.592474434 1258.58887559757 1368.44083500388 1409.06736043194 1344.49760353408 1179.02897936334 1200.82101972608 1207.48367057643 1205.18157962497 1243.27183406212 1429.13954280887 1029.42236180296 494.13941759309 320.133926548292 226.675293893803 162.233502829826 125.791759190922 114.998379064926 113.851213084238 113.706694171139 115.251842051254 115.684253953624 113.355995277575 112.805400425744 113.577417213881 114.753259082037 115.943968466457 116.791702246269 118.372914095228 120.721140296415 122.781366047162 124.545636652627 126.357669890555 129.00114434574 131.230054224782 132.726257998611 134.787904429004 135.913267178294 137.573895290311 139.944337666077 141.720270719953 142.791699064083 144.372907730854 146.891604697374 150.149333272133 153.677874483061 156.692007375017 158.712835370268 162.693360292971 166.372904548668 168.544455520446 170.805396310203 171.801474613445 174.048742576899 176.418504710471 178.239890980402 179.870033674196 182.62078158129 185.535873918751 188.057316689804 190.297675205087 192.13420864035 194.230041496036 196.376352346172 198.921612692513 201.811243798435 204.94635767727 207.799798153317 210.677796833166 213.230038313849 215.553022144562 218.074464915615 220.556722922485 221.865035353828 223.088849663574 224.780856314823 226.601466274657 228.07958599106 230.193750644633 232.011952282009 234.378866369833 237.297665658527 239.937084458197 242.936726120615 245.738872324965 248.686214415681 251.413115868089 254.057301712225 256.578744483279 258.233274757602 256.536706660558 257.111752540556 262.764209932854 268.17651770852 272.281955526402 271.826776684556 272.582628287704 273.731932044868 271.344882673456 266.063040493064 270.574169378491 295.124489951864 328.296069930742 425.794920132414 797.364159972438 1088.35871562819 1226.00413012873 1200.86527851472 1131.04821010515 1248.84507731393 1517.67885003308 1714.94868706988 1703.16133358935 1521.55710822749 1382.31759797436 1359.08272619757 1696.28247594922 1826.19945773382 1454.47879378675 1450.42879512756 1408.68206831999 1485.38736724994 1663.27954851317 1658.4850264294 1461.73659347629 1645.69792072211 1966.52848129983 2539.93801069367 2229.48836616054 2186.99571131243 2739.25754996295 3383.72477047976 3095.15376066411 3759.5782965935 5208.22814819761 4709.36297531928 4333.27636739564 4480.24493405496 4976.69201126571 4949.34083866729 4478.47444360703 4223.4250464968 3870.26091476191 3171.42368327035 3517.90904405841 4208.44680176364 4313.33295826615 4657.61163114252 4437.61633424035 4881.71550615587 4983.73440901081 5059.13795366299 5495 -9999 -9999 -9999 -9999 -9999 -9999 -9999 -9999 -9999 -9999 -9999 -9999 -9999 -9999 -9999 -9999 -9999 -9999 -9999 -9999 -9999 -9999 -9999 -9999 -9999 -9999 -9999 -9999 -9999 -9999 -9999 -9999 -9999 -9999 -9999 -9999 -9999 -9999 -9999 -9999 -9999 -9999 -9999 -9999 -9999 -9999 -9999 -9999 -9999 -9999 -9999 -9999 -9999 -9999 -9999 -9999 -9999 -9999 -9999 -9999 -9999 -9999 -9999 -9999 -9999 -9999 -9999 -9999 -9999 -9999 -9999 -9999 -9999 -9999 -9999 -9999 -9999 -9999 -9999 -9999 -9999 -9999 -9999 -9999 -9999 -9999 -9999 -9999 -9999 -9999 -9999 -9999 -9999 -9999 -9999 -9999 -9999 -9999 -9999 -9999 -9999 -9999 -9999 -9999 -9999 -9999 -9999 -9999 -9999 -9999 -9999 -9999 -9999 -9999 -9999 -9999 -9999 -9999 -9999 -9999 -9999 -9999 -9999 -9999 -9999 -9999 -9999 -9999 -9999
1911.41340154199 1907.80328090337 1537.83040638304 1098.11785258521 801.059900222791 771.742437936785 741.843812824414 574.344831524152 500.917244479146 415.879327453892 375.807722772141 393.490513604953 453.962969150747 574.613118432245 724.852560500022 964.502469085434 879.526892414765 896.753877417752 1113.56169439757 1072.14895088895 1111.77533105056 1174.72325128923 1194.4762537374 1199.05497782205 1242.81938494206 1217.43811625571 1173.12320739138 1102.1237329795 1105.40672607627 1160.08480109742 1039.17384919744 1089.28849523234 1251.22653617004 1138.51132602431 647.301818508354 352.4332101103 232.319909697949 181.339897048583 140.209179799707 116.862884344167 111.56383748291 111.56383748291 112.186362524953 113.484815847749 112.830453924588 111.281918741455 111.324951321145 111.787907611221 112.859335955351 114.194247569717 115.720273902155 117.301485751113 119.444342439373 121.118550436402 123.011974557346 124.930565765984 127.260171660911 129.440544622123 132.005515409619 132.645047740776 133.935689923751 136.511302563702 138.872909321963 140.648842375839 142.035043060384 144.751688036614 149.849208721057 153.981742782554 156.208773170076 159.104562356027 161.207523773741 163.84194041246 166.012535539241 167.386019613707 168.826077537073 170.730046269331 173.085090302441 175.573803956392 177.631726389932 179.875838551052 182.208197665198 184.118542277793 186.53189730494 188.872899775403 191.6382746505 193.20288486838 196.019551098725 198.243611680477 201.348294363579 203.954100486709 206.872896593217 209.119194136455 211.44052871119 213.583385399449 215.726242087708 217.584445750447 219.167541348365 221.726036699006 223.39323419752 225.175988762974 227.019544734352 229.162401422611 231.195658046653 232.954090940149 235.660707454129 237.401105616419 240.037206573482 243.602920587241 246.890086647839 249.151011153049 251.293867841308 253.436724529567 253.467641487695 252.206716997505 255.326503714087 260.05393349304 262.843929736072 264.968130631282 264.185611679831 264.53147966458 263.940586731499 263.550812591348 256.246344487486 248.244931377782 250.821129746459 274.604676369266 320.645277132007 490.171940307857 766.894630189945 976.054780233842 982.442577212422 1069.09059103873 1349.02975847529 1433.18316771898 1660.86425155932 1710.12143992549 1387.97668184173 1199.66246013653 1286.21994550727 1621.92864069842 1814.97068760647 1586.20360072803 1550.73700597068 1255.53851157383 1449.05713804826 1521.8920914333 1464.94346889745 1327.60903487508 1537.18512789722 1375.36716866507 1501.15999814474 1772.13686464192 2133.9481914717 2534.54006532179 2591.80396827908 2617.59187426765 3386.75771546036 4430.91756291977 4483.26992318524 4069.497590349 3939.04612893166 4445.89927307066 4604.16694617595 4512.04794651909 3768.56419686805 3504.40637392293 2988.6013295023 2881.76161525609 3217.44560742518 3568.60206417646 4154.05430116872 4348.35691517969 4975.83304081561 4806.42482481785 4686.70086502096 5270.55420474404 5509 -9999 -9999 -9999 -9999 -9999 -9999 -9999 -9999 -9999 -9999 -9999 -9999 -9999 -9999 -9999 -9999 -9999 -9999 -9999 -9999 -9999 -9999 -9999 -9999 -9999 -9999 -9999 -9999 -9999 -9999 -9999 -9999 -9999 -9999 -9999 -9999 -9999 -9999 -9999 -9999 -9999 -9999 -9999 -9999 -9999 -9999 -9999 -9999 -9999 -9999 -9999 -9999 -9999 -9999 -9999 -9999 -9999 -9999 -9999 -9999 -9999 -9999 -9999 -9999 -9999 -9999 -9999 -9999 -9999 -9999 -9999 -9999 -9999 -9999 -9999 -9999 -9999 -9999 -9999 -9999 -9999 -9999 -9999 -9999 -9999 -9999 -9999 -9999 -9999 -9999 -9999 -9999 -9999 -9999 -9999 -9999 -9999 -9999 -9999 -9999 -9999 -9999 -9999 -9999 -9999 -9999 -9999 -9999 -9999 -9999 -9999 -9999 -9999 -9999 -9999 -9999 -9999 -9999 -9999 -9999 -9999 -9999 -9999 -9999 -9999 -9999 -9999 -9999
1902.54296834337 1868.75923109997 1633.05526625697 1117.7669132267 573.122674393225 502.59322819977 548.944049460418 418.384299574733 344.000213508989 332.316263183373 293.797624872948 383.446068818192 394.659707052054 382.378424622609 531.098080630624 687.521577558395 1052.26652409281 939.313400947362 1161.32031813347 1067.38597607907 987.054949009808 1069.70807463791 1105.53851921166 1078.52440040143 1106.81897839452 1033.38002554021 978.572743578588 978.945994211258 1011.39126217713 996.49500033349 967.020250898474 1117.18690476376 1203.730309537 934.251158038375 376.562826573844 235.198847281422 182.361987065808 152.286502324398 126.151615098105 112.016927180734 109.420980794682 109.420980794682 110.287909202345 111.359337546475 110.418921125953 110.146371606555 109.54149294906 110.257655007681 110.716479267122 112.444526672977 115.341016775535 117.004118667638 117.914041759326 119.588886687295 121.658627471776 123.801484160035 125.944340848294 128.828036690447 129.646917021676 131.355816933625 133.457915805985 136.625036897853 139.613796552363 142.23563257249 144.937398957765 148.584192843893 152.39101978378 154.790010834646 156.506212303122 158.75843118314 161.628777761856 163.135864133313 164.430759526231 165.566301636413 167.636268366602 170.448127527876 172.886476324202 175.656607672618 177.758475407625 179.617080333306 181.372901366512 183.378384900847 185.600532480151 187.801471431289 190.126806215084 192.840996258234 195.230041496066 197.389990824132 199.846749887203 202.705774161724 205.245249990905 207.944324937361 210.08718162562 211.82756687864 214.042250198311 215.863121043869 217.658608378657 219.968907512095 222.65677298 225.617519662886 227.801338959285 229.098292681293 230.363119452776 231.528871659028 233.160245767812 235.154808970329 237.389932531261 240.670554296353 243.793869432447 245.936726120706 248.079582808965 250.850481874466 249.185196816284 248.64444985293 251.881038329321 256.068462876553 258.816223345976 259.264121459713 257.325138625824 257.106521875749 257.073312672358 257.251631135134 246.711740949976 236.503274206074 236.799737203644 251.342218918924 281.038106359899 325.792749516248 400.392490696636 536.826425670678 663.530375942687 776.843161582782 989.283355316027 1196.49559316467 1399.36621378121 1426.58066100646 1322.6311459671 1152.01467466445 1169.01774238774 1324.07740550871 1547.89453668939 1528.71180405486 1632.60692069659 1452.65825659176 1259.22375629213 1343.42846116172 1450.54935141001 1270.24634137154 1471.64700367577 1173.32439412265 1218.93827460325 1520.29071272299 1541.43867442926 1662.80956204625 2080.30268095794 2630.0486800082 3625.13171474381 3867.15201955802 3918.82253816105 3337.73811006027 2940.36408019133 3499.89200560656 4412.10419189281 4062.2303129713 2979.42594122109 2867.63854415092 2780.96290776228 2549.49325322871 2535.29536661734 3230.02634356138 4306.03478175709 4552.30505972809 4738.73104854888 4496.43986100247 4557.73155085756 5049.09198281001 5290.97787276067 -9999 -9999 -9999 -9999 -9999 -9999 -9999 -9999 -9999 -9999 -9999 -9999 -9999 -9999 -9999 -9999 -9999 -9999 -9999 -9999 -9999 -9999 -9999 -9999 -9999 -9999 -9999 -9999 -9999 -9999 -9999 -9999 -9999 -9999 -9999 -9999 -9999 -9999 -9999 -9999 -9999 -9999 -9999 -9999 -9999 -9999 -9999 -9999 -9999 -9999 -9999 -9999 -9999 -9999 -9999 -9999 -9999 -9999 -9999 -9999 -9999 -9999 -9999 -9999 -9999 -9999 -9999 -9999 -9999 -9999 -9999 -9999 -9999 -9999 -9999 -9999 -9999 -9999 -9999 -9999 -9999 -9999 -9999 -9999 -9999 -9999 -9999 -9999 -9999 -9999 -9999 -9999 -9999 -9999 -9999 -9999 -9999 -9999 -9999 -9999 -9999 -9999 -9999 -9999 -9999 -9999 -9999 -9999 -9999 -9999 -9999 -9999 -9999 -9999 -9999 -9999 -9999 -9999 -9999 -9999 -9999 -9999 -9999 -9999 -9999 -9999 -9999 -9999
1867.94625347946 1789.5078826678 1548.67105152113 845.381994213981 619.784503874467 391.326369507468 398.502499604286 266.900380998758 202.089308589903 172.676082328361 174.701603172856 209.296322379044 229.892030145705 317.118381089473 413.435249111798 481.86925454882 777.482520624329 817.025153449293 859.20622274585 900.742134800708 938.886620298932 1030.39983295048 983.132019556562 945.496750264597 1025.99397462996 1046.03648591634 985.772784203133 935.271723938483 935.902010494082 947.44870853282 1045.21158891573 1020.16299281269 920.077185896858 788.536334158167 292.077944224814 175.632253962796 148.66840539833 126.23818470068 112.662011423749 107.867001358359 106.654743287032 106.41718615968 108.030486130636 109.216480858246 109.130637692834 108.26683039873 108.160288733143 108.471034582655 109.688966373805 111.468978009562 112.838396404531 114.434032140799 116.359723291295 119.006225147222 122.071515154191 123.767058257776 125.733850450953 126.391468122126 128.167047501426 131.232337508394 134.450266117358 138.586984468457 142.21489660261 144.771621642723 147.204040197337 149.529340967927 151.742856807881 153.492641085509 156.210568103379 157.906116686295 159.247096015171 161.163398002999 162.304740600126 165.162414151358 167.457906259425 170.448127527876 172.632075955395 174.87290295762 177.01575964588 179.087725678298 181.162410969171 182.743390428941 184.587186398916 186.730043087175 188.126536431136 191.093165722152 194.158613151952 196.371381353544 199.457896712865 202.448121163502 204.377671519358 206.011958646473 208.532203707747 210.209952266545 212.021731013649 214.492629241805 216.587180034542 218.730036722801 222.48616969461 225.007176092571 226.279483071897 226.638204418321 229.160286963057 229.695081023558 231.475638651138 233.0119522821 235.154808970359 237.439445200212 240.219022830552 242.160569339205 244.627726950943 246.43391363142 244.840930640909 244.556248212906 246.742797668156 251.72993476626 253.716534733442 253.355106445101 251.949702415944 251.873449785521 251.94937165935 252.536713025114 239.093226778216 229.749475335164 238.484726042628 253.466722028178 263.430490523128 278.528326780917 287.806575926578 389.858606201182 530.021138125836 515.124746212151 585.172418800925 737.575102357302 930.012322664197 983.330779623711 1054.2835750603 1288.66938777446 1461.04014915148 1588.03930811872 1590.90375143261 1381.66194045226 1510.43623171584 1648.61182513471 1661.53993591965 1236.78392111126 1403.65861711419 1301.3881732324 1619.85257311146 1431.22107656797 1157.05287774347 1199.29615383189 1423.60558297285 1646.68209589518 1916.1028698653 2133.08080386425 2806.54426047709 3171.85861192623 2585.34007779888 2327.23406899127 2323.50361560185 3067.01736544611 3875.01481450048 3751.88688394858 2658.29943804489 2189.63078360497 2175.92313827481 2295.63937575541 2562.94542455933 3088.52486172064 3759.83902556357 3631.42871514819 4069.90497601701 3810.12551621732 4335.50161416691 4719.81329691946 4819.11887208562 5025.77164899058 4997.77690860314 5233.83569709077 -9999 -9999 -9999 -9999 -9999 -9999 -9999 -9999 -9999 -9999 -9999 -9999 -9999 -9999 -9999 -9999 -9999 -9999 -9999 -9999 -9999 -9999 -9999 -9999 -9999 -9999 -9999 -9999 -9999 -9999 -9999 -9999 -9999 -9999 -9999 -9999 -9999 -9999 -9999 -9999 -9999 -9999 -9999 -9999 -9999 -9999 -9999 -9999 -9999 -9999 -9999 -9999 -9999 -9999 -9999 -9999 -9999 -9999 -9999 -9999 -9999 -9999 -9999 -9999 -9999 -9999 -9999 -9999 -9999 -9999 -9999 -9999 -9999 -9999 -9999 -9999 -9999 -9999 -9999 -9999 -9999 -9999 -9999 -9999 -9999 -9999 -9999 -9999 -9999 -9999 -9999 -9999 -9999 -9999 -9999 -9999 -9999 -9999 -9999 -9999 -9999 -9999 -9999 -9999 -9999 -9999 -9999 -9999 -9999 -9999 -9999 -9999 -9999 -9999 -9999 -9999 -9999 -9999 -9999 -9999 -9999 -9999 -9999 -9999 -9999
1981.55098307329 1849.90556652523 1705.81037996437 957.295117199326 827.231345874706 474.071681528913 288.862670280457 180.646649663843 146.011176803323 134.61978818824 135.558497526438 141.371451122312 154.032548195819 193.38549767773 402.249517376835 723.487448071105 774.775054008559 923.672695070703 1059.76187429977 1063.65708073698 935.16954611268 910.924867312358 877.505952721534 886.996027748245 914.203227651843 936.363035273489 1018.09379493215 957.509839499652 806.108918393657 800.613750792317 844.598310372751 869.185687559391 1012.48123331858 468.002721798627 215.202082960388 153.308076344533 136.854453953791 123.355220038556 112.102877746254 104.913345892415 103.89666324376 104.135267418224 105.869124233551 107.073624170017 107.125482322302 106.210988092096 106.92531565496 106.568252980968 108.383117839281 109.502194234795 110.982330154197 113.562505674324 116.162423697918 118.349420863151 120.564742224371 121.930764299572 123.869117869178 126.75993512993 131.758810904759 134.973095937147 137.913074309966 139.410809140449 141.934134137369 145.100770903151 147.438351978513 148.578736990748 149.716476084997 152.049038189178 154.564735644775 157.414144136807 158.86692204329 160.876700774839 162.952585125871 165.162414151358 167.457906259425 170.448127527876 172.590984216135 174.391736643328 176.353032943111 179.019554280912 180.620514567264 182.328761320014 185.123215508156 186.781658782088 188.675204784131 189.997641299971 193.096299200538 196.243611680477 199.173278406343 200.583388581727 202.706260257927 204.801468249133 206.973971877149 209.08585952755 211.201713472253 213.981385817392 216.448117981316 218.590974669575 221.659379759603 222.194561082516 224.153490269698 226.167893327899 228.20993989541 229.239211232551 230.087618505948 230.869095593872 233.011952282131 234.679515882691 236.946498487973 239.464016439938 241.632349615098 242.256702671117 240.536709842988 239.395657467068 242.319380761396 247.281518216579 247.690408693342 248.613525802079 246.909149086963 247.87880838535 248.926611617091 251.066312471904 240.923126868515 230.010922166661 237.52928821552 247.080243511024 254.559803999003 258.048207099945 257.769154148708 283.023650260782 336.146382301558 405.01464448305 428.802381811837 521.325810550622 653.295640673266 729.40788743102 895.545194202347 1247.53795088878 1351.07861889955 1315.7213284288 1368.72292280556 1407.52981736297 1619.01413619918 1558.78418129944 1419.39583663039 1117.70291928058 1084.37441966694 1352.69588112883 1594.1735975777 1266.61994307159 1343.87423774302 1636.96868542307 1799.9658968206 2009.89765113994 2052.99404056291 1676.10985678027 2378.10062812397 2113.13858109552 2033.03309493417 1921.93442134211 2545.33396484271 2733.41515805553 2814.26208254179 2966.31239379331 2503.82225760346 2032.99335192485 2373.38249995646 2804.59236141422 2925.06757431281 2639.16857722766 2665.20469961513 3426.27007570026 3570.35688114932 4010.7667830449 4257.15188891506 4271.83216612737 4469.8730029564 4512.61876024922 4382.43921305548 4565.13427257503 4776.81380989197 5066.0268772253 -9999 -9999 -9999 -9999 -9999 -9999 -9999 -9999 -9999 -9999 -9999 -9999 -9999 -9999 -9999 -9999 -9999 -9999 -9999 -9999 -9999 -9999 -9999 -9999 -9999 -9999 -9999 -9999 -9999 -9999 -9999 -9999 -9999 -9999 -9999 -9999 -9999 -9999 -9999 -9999 -9999 -9999 -9999 -9999 -9999 -9999 -9999 -9999 -9999 -9999 -9999 -9999 -9999 -9999 -9999 -9999 -9999 -9999 -9999 -9999 -9999 -9999 -9999 -9999 -9999 -9999 -9999 -9999 -9999 -9999 -9999 -9999 -9999 -9999 -9999 -9999 -9999 -9999 -9999 -9999 -9999 -9999 -9999 -9999 -9999 -9999 -9999 -9999 -9999 -9999 -9999 -9999 -9999 -9999 -9999 -9999 -9999 -9999 -9999 -9999 -9999 -9999 -9999 -9999 -9999 -9999 -9999 -9999 -9999 -9999 -9999 -9999 -9999 -9999 -9999 -9999 -9999 -9999 -9999 -9999 -9999 -9999 -9999
1986.76126971359 2039.46881420699 1539.24143959678 1517.80258084195 1082.89852632537 419.493783126575 234.249206890253 154.759425615332 142.630265110803 128.393725256589 127.293912090957 136.765449782659 149.638426379778 191.125231593771 307.611234278885 539.974019515426 399.265857103413 575.053105626721 898.980742401276 957.225724934005 896.601218161125 877.52379899948 831.878660855968 818.815969338492 863.94368225887 987.171391590593 950.083709518675 784.240083159872 735.929894433951 752.878888017318 707.647688657876 971.745447746525 937.308147274785 367.477412823059 220.163278596165 155.281938737359 134.513756455915 118.852276949604 107.75132427028 102.035639055961 101.717529496512 101.992410729996 102.856049460779 102.988616094994 103.992410729996 104.073624170048 105.145631734035 106.221125757661 107.296619781287 109.10179037803 111.872915686397 114.017706816987 115.587828309436 117.319140822503 119.460568038628 123.193371430395 128.336141037976 131.804378580921 133.002266881316 134.081518421152 135.461710440987 138.675145221099 141.884243277219 144.360726705646 145.872909322024 148.013831580027 149.575824871518 151.301479386801 153.4470836388 155.590987398321 158.594186824412 161.811022589479 164.005984096547 165.077720591889 166.456747868012 169.440538257872 171.877765769502 174.722456999388 176.428628265006 178.011965010907 180.152616236491 182.298836766764 185.168391883532 186.797733074291 188.737632357209 190.876928360319 194.009812644004 195.16589428285 197.153211421253 198.899186733881 202.8842242324 205.362112634237 206.875027866669 208.507913729373 210.743606907196 213.302784797962 216.162887257793 216.994653263162 217.863121043915 220.807676761064 222.998425544736 224.154504025546 226.140665978873 226.986521892093 227.289017734236 228.730033540645 230.872890228904 233.015746917163 235.156398166897 236.645038194338 237.716466538467 237.196926577395 236.118919000258 235.984821459992 240.021644143981 242.985129574978 243.292130363048 244.307620149781 242.873942531046 244.617910554355 245.299839209291 246.984821459992 244.664448560788 229.939925086894 230.230189477403 243.320813030575 247.711050819075 247.973671541064 245.097700040799 255.548830448757 240.558204418461 255.151333749433 327.739246777074 420.953332221582 468.645203241404 500.325740920282 601.861872284087 1094.64688033959 1696.82821411236 1593.53021961677 1722.85349665065 1921.24953320153 1888.70421122631 1733.12812221976 1241.898306795 1089.56407533943 1248.8545315813 1205.09653659312 1026.1241817304 1255.51587500236 1578.0784447316 1549.15283531843 1785.79488722705 1895.17386479761 1858.54319621506 1442.96500426118 1564.83386959484 1752.0472752541 1969.67616810894 2413.54483391909 2582.13068470367 2093.50831919411 2191.45776161773 2541.11413313766 2088.42392497754 2384.7162111423 2873.63129358598 3077.14253260932 3271.58284906225 3223.50006975066 3400.68033555438 4086.40174914882 4551.10077108248 4813.32046630114 5012.07710254208 5133.69907697906 4655.47781765171 4245.98557838553 4516.68342044365 4545.22097386575 4256.31926433279 4492.07278490855 5078.10591928692 -9999 -9999 -9999 -9999 -9999 -9999 -9999 -9999 -9999 -9999 -9999 -9999 -9999 -9999 -9999 -9999 -9999 -9999 -9999 -9999 -9999 -9999 -9999 -9999 -9999 -9999 -9999 -9999 -9999 -9999 -9999 -9999 -9999 -9999 -9999 -9999 -9999 -9999 -9999 -9999 -9999 -9999 -9999 -9999 -9999 -9999 -9999 -9999 -9999 -9999 -9999 -9999 -9999 -9999 -9999 -9999 -9999 -9999 -9999 -9999 -9999 -9999 -9999 -9999 -9999 -9999 -9999 -9999 -9999 -9999 -9999 -9999 -9999 -9999 -9999 -9999 -9999 -9999 -9999 -9999 -9999 -9999 -9999 -9999 -9999 -9999 -9999 -9999 -9999 -9999 -9999 -9999 -9999 -9999 -9999 -9999 -9999 -9999 -9999 -9999 -9999 -9999 -9999 -9999 -9999 -9999 -9999 -9999 -9999 -9999 -9999 -9999 -9999 -9999 -9999 -9999 -9999 -9999 -9999 -9999 -9999 -9999
1676.57473915398 1709.45144613896 1586.18436501866 1605.64581261562 944.021046928856 323.533981293337 168.812467666816 143.473671652405 130.536820500602 118.000520921854 118.548439527428 118.71943770604 134.904613208539 172.25456259665 294.229175066052 336.22697744717 361.249323458555 481.751872551979 743.402530284657 826.961212762774 767.968732823296 812.924700958166 855.101081015617 866.234552300779 910.534328242221 877.804252820481 800.178648872146 805.933357770255 901.458336517804 795.103666565777 731.568317788314 760.462172276753 610.853279502925 390.328723604443 241.906552621802 150.788532371435 124.575162848379 110.378517011039 102.805251400991 100.219875245354 99.8703101890561 99.7897141571009 99.8395440001559 99.8495540417672 101.775803190783 102.005990460936 103.230060589247 105.389772500089 107.56876866946 109.319305165714 110.876710321399 113.529350514487 117.281126909059 120.882697600149 122.703312150555 126.122147880096 128.462989377443 128.981451087416 131.0300815659 134.225425739784 136.371210896498 139.314542917225 141.220272311138 142.658624289651 144.768506836184 146.436028753538 148.162417333544 150.256180721562 153.042506732897 155.500380846008 156.856911522932 160.682816038082 162.859332773316 164.018076831283 166.100375822685 167.590769482334 169.967099111717 172.192758348515 174.478481425584 176.544644203462 178.032543359284 180.76731482435 184.117720404827 187.25140940526 189.713816202743 191.008932477456 194.01881575278 196.01208931316 197.305264475243 199.63847273633 202.167270524949 203.997928220775 206.287899655907 207.94579538994 210.656167369885 212.502184688296 213.573613032425 215.38068978417 216.706458721579 218.72624208786 219.942851542091 221.855531773956 222.79729348715 223.389746085101 225.590971487388 227.706227804882 229.80146188479 231.905972096606 233.387033632697 234.377865944872 235.423163892006 235.023301306531 232.183604810939 231.703746269175 237.859323226757 238.918535730812 239.53500123741 238.640739130133 239.245619049442 240.292151745234 241.065652238373 242.700577578558 241.611939186599 227.721845419549 227.127408512453 237.563310277867 241.227280730978 240.676270595717 239.526926236221 236.291897400489 226.374992262643 240.667565698889 262.751591531751 281.400473793141 293.506030810794 328.989637857768 437.008316382727 558.276766014867 982.813548852195 1558.92193724949 1581.48970119842 1704.3125504491 1813.21063841126 1610.02609806407 1530.51824753835 1662.51031831025 1713.58687498301 1522.36990429968 1166.23465278354 1092.09161114848 1219.11686344964 1521.25798435555 1741.79354552894 1465.70917230534 1232.7208533981 1386.29955401944 1815.91662358393 2343.88287637255 2652.99027229684 2064.68305045912 1727.04937363496 2031.08867684646 3111.44836011304 3413.78498495298 2471.5978376602 2304.39029057962 2728.21766899116 2893.6590786591 3026.40647915317 3361.67180971512 3415.73512604717 3531.4705899496 4007.14789318493 4441.58631451652 4923.41736264503 5213.60472754876 5289.24412983561 4988.47396312832 4773.43669455677 4796.62625829842 4662.18110546954 4919.0089583942 4695.29862905602 5199.37542488605 -9999 -9999 -9999 -9999 -9999 5105.32692478776 -9999 -9999 -9999 -9999 -9999 -9999 -9999 -9999 -9999 -9999 -9999 -9999 -9999 -9999 -9999 -9999 -9999 -9999 -9999 -9999 -9999 -9999 -9999 -9999 -9999 -9999 -9999 -9999 -9999 -9999 -9999 -9999 -9999 -9999 -9999 -9999 -9999 -9999 -9999 -9999 -9999 -9999 -9999 -9999 -9999 -9999 -9999 -9999 -9999 -9999 -9999 -9999 -9999 -9999 -9999 -9999 -9999 -9999 -9999 -9999 -9999 -9999 -9999 -9999 -9999 -9999 -9999 -9999 -9999 -9999 -9999 -9999 -9999 -9999 -9999 -9999 -9999 -9999 -9999 -9999 -9999 -9999 -9999 -9999 -9999 -9999 -9999 -9999 -9999 -9999 -9999 -9999 -9999 -9999 -9999 -9999 -9999 -9999 -9999 -9999 -9999 -9999 -9999 -9999 -9999 -9999 -9999 -9999 -9999 -9999 -9999 -9999 -9999 -9999 -9999
1649.6621078237 1522.68261403018 1591.55402898033 1663.13630786691 851.238664277642 309.213484354864 155.613916454648 127.801010052197 112.452711471272 111.178140111287 110.157684046849 110.452000477013 116.605509032868 130.202634743921 192.39600389877 355.799690710444 559.770791746676 646.472844399249 765.50613327457 881.38089305846 837.859498263913 771.03069796183 822.386426832346 892.606077601845 934.945615103967 882.790883807548 833.528771702093 781.79489190723 769.52274514699 759.514625590832 744.612756828697 656.955499522342 521.970976713635 318.476286964589 184.131891198144 133.67524083825 111.04945818547 102.99522242991 98.8402215204391 98.3593407288135 98.0888117098988 97.0578486132354 97.7202770844328 97.9909599360822 99.0167001973152 100.799820852038 102.158632245133 104.525559061703 107.14884714921 108.641012613089 110.876710321399 113.454590088943 116.511748736918 119.664617932804 122.154834427974 124.85986665703 125.055012407433 128.753414278426 130.744390477889 134.571955622084 135.056743863446 137.606481410091 140.002192643793 141.494354458813 143.291700655282 145.307929685824 147.869114687083 149.550754526916 151.341945567641 154.123169570648 156.440541440119 159.521748515798 160.720778276852 162.414090800475 165.987396974264 170.338082598772 175.68756369878 179.340148076852 183.132275070711 184.173210585845 184.669181517047 183.721291605184 183.83757555381 185.620972620247 189.213405848185 191.721001623302 194.009775549363 195.150499128552 197.158613152013 199.077409258521 200.487660370511 202.73383454002 204.502629578486 206.961470079722 209.287899655937 210.359328000067 211.536940553274 212.648836011557 214.587180034603 216.730036722862 218.562912291463 218.934549388075 220.158606787639 222.492662561337 225.297668840927 227.127419877854 228.665750043002 230.141709570765 230.560046030308 230.65575471153 231.536936904415 232.298856418606 228.945744720156 227.612662792171 235.566949887486 236.221269029993 235.379062820771 233.718384552778 234.440075018393 235.846465454042 237.560046030308 238.43006503373 238.274817814531 224.698976816307 221.454381504344 231.810396762541 234.501492254912 235.085558311136 233.075558638303 227.829296907918 220.211247887621 226.608023348512 239.143797758043 246.22839604483 251.124134672735 267.718388984904 306.287891790767 366.21309477503 480.94852108413 729.010092157773 847.330971074171 1077.28375497058 1362.46497476951 1479.15658410268 1315.41905990929 1484.07026811707 1379.9935219431 1426.08470222541 1118.35984479309 1127.89390925458 1484.13993116924 1573.89666083575 1588.47155346153 1393.75547347745 1144.91445003665 1096.44857699698 1210.69896007967 1504.32255787967 1700.62139664902 1296.38826490546 1608.91170231916 2419.48435285077 2838.72542272439 2654.46455300502 2303.45252653215 2274.81005796062 2856.90716329783 2811.33373096071 2960.59335927064 3046.37880113015 2837.31431062818 3020.6615928158 3356.80029397235 4222.31354470946 4819.71185696265 4711.98831444557 4908.86673140078 4861.18214119993 4834.81460069119 4860.69671039455 4815.79862828689 4958.26170468022 4836.67838145639 5092.71706261707 5421.01434050184 -9999 -9999 5715.14809274263 5558.78664204285 5036.38201913015 4384.41658921317 4601.83150641186 -9999 -9999 -9999 -9999 -9999 -9999 -9999 -9999 -9999 -9999 -9999 -9999 -9999 -9999 -9999 -9999 -9999 -9999 -9999 -9999 -9999 -9999 -9999 -9999 -9999 -9999 -9999 -9999 -9999 -9999 -9999 -9999 -9999 -9999 -9999 -9999 -9999 -9999 -9999 -9999 -9999 -9999 -9999 -9999 -9999 -9999 -9999 -9999 -9999 -9999 -9999 -9999 -9999 -9999 -9999 -9999 -9999 -9999 -9999 -9999 -9999 -9999 -9999 -9999 -9999 -9999 -9999 -9999 -9999 -9999 -9999 -9999 -9999 -9999 -9999 -9999 -9999 -9999 -9999 -9999 -9999 -9999 -9999 -9999 -9999 -9999 -9999 -9999 -9999 -9999 -9999 -9999 -9999 -9999 -9999 -9999 -9999 -9999 -9999 -9999 -9999 -9999 -9999 -9999 -9999 -9999 -9999 -9999 -9999 -9999 -9999 -9999 -9999
2107.50028587177 1877.22051407115 1553.33901964621 1492.69836980746 576.377201205303 277.779651366507 154.361313707926 110.469925135283 104.69152199593 105.312490546381 104.292690045308 106.675589305091 114.922636711667 124.433406391192 146.494614650036 249.731369200112 563.87337326966 684.642056479004 594.59852718651 669.492694790548 749.638388838913 776.261366832008 809.951656362338 851.941638653711 858.190197146306 845.993226572174 852.542896794968 753.500336552169 689.913765681976 767.468397113812 698.44978700846 561.207765755298 405.632284152544 222.612522440228 144.583954838671 117.206505433583 100.47364538582 96.5109890873806 95.7999686607709 96.07415579041 96.3457609979651 95.8972257128879 96.6488487403185 97.515640556166 98.3500288588925 98.9443472127589 101.120491970535 103.62334524589 106.206303222237 108.398879395153 111.312869656089 113.344552927197 115.380503365262 118.033672690405 120.448137074435 121.968978576605 124.62979657899 128.344142609802 129.027212504714 131.86313059052 133.392474740635 136.957122833706 137.988218984765 139.940733734896 142.193383951131 144.130733368466 146.380497000889 149.033663837816 150.881969286792 152.809067065666 154.951923753925 157.828495689263 159.699751555802 164.785351830665 171.182671248954 177.962683660656 184.05591896803 189.387265357534 191.310667465706 191.761146640169 191.654239002035 190.064319008076 186.953443927131 186.538928239063 188.577134101087 190.868822499594 194.014039246469 195.517363228182 196.641565847113 198.103707028673 199.975666191667 202.675789265049 204.903582364197 206.402865626165 207.581202302399 208.794956120822 210.50829510484 211.795487334787 213.733831357834 215.672054293692 216.019544734352 218.098908935415 219.490052484579 221.399252435966 223.308452387353 225.297668840957 226.90658952552 227.345760997965 227.472508708762 228.358792909976 230.072130099747 229.146351279486 224.936158367925 224.345760997965 232.338122273588 231.65540560299 232.200359776518 229.689143133944 231.295895887121 233.632656095356 234.032088452847 234.020771610575 234.12768133062 222.80741651089 215.89996655049 225.037702153657 230.452280862084 229.237558710389 226.887939891027 224.049307054387 216.548932992783 217.174100027515 224.641203419763 227.62183171528 230.068531759414 234.645410335915 244.416082451339 265.257960150523 292.728167983226 346.696964526439 401.185373450592 635.015964613375 932.569887769869 1144.99285722512 999.701834593132 1041.75873266761 932.932990300934 849.556686546586 767.646042842401 971.365136266645 1431.49859052394 1627.6225981421 1821.83990364078 1985.54649300696 1939.17929357471 1607.82678389223 1236.9754420142 1012.1034819287 1335.50354622624 1058.35756542809 1538.17140416363 1957.11401639221 2119.9442529212 1866.05546374327 2221.83749349647 2978.2045298361 2924.76359901745 2834.1195944908 2819.43453907742 3214.56612906164 3628.12766332478 3442.10949265078 3457.82917557877 3926.21656405447 4394.48314693958 4211.49292550602 4585.27042890832 4681.46762629082 4389.12273560559 4610.50597075926 4888.03903878533 4887.57226811186 4985.72779937999 5176.34851166907 5332.95894945344 5493.77231036239 5615.56365676853 5728.81204225666 5424.52086985552 4543.37694563008 4091.69401160789 4596.27994611131 5235.13167099073 -9999 -9999 -9999 -9999 -9999 -9999 -9999 -9999 -9999 -9999 -9999 -9999 -9999 -9999 -9999 -9999 -9999 -9999 -9999 -9999 -9999 -9999 -9999 -9999 -9999 -9999 -9999 -9999 -9999 -9999 -9999 -9999 -9999 -9999 -9999 -9999 -9999 -9999 -9999 -9999 -9999 -9999 -9999 -9999 -9999 -9999 -9999 -9999 -9999 -9999 -9999 -9999 -9999 -9999 -9999 -9999 -9999 -9999 -9999 -9999 -9999 -9999 -9999 -9999 -9999 -9999 -9999 -9999 -9999 -9999 -9999 -9999 -9999 -9999 -9999 -9999 -9999 -9999 -9999 -9999 -9999 -9999 -9999 -9999 -9999 -9999 -9999 -9999 -9999 -9999 -9999 -9999 -9999 -9999 -9999 -9999 -9999 -9999 -9999 -9999 -9999 -9999 -9999 -9999 -9999 -9999 -9999 -9999 -9999 -9999 -9999 -9999
2033.04416852761 1883.90857792255 1673.08013939467 1105.61635417478 478.732515806093 225.325338114166 122.480496808749 100.672163773181 98.4810842985559 99.7082945507104 99.4370456410759 103.221568803395 110.716205394398 116.661468047862 135.638581559181 227.906592454843 315.783352788683 337.167690460839 374.655946093467 403.280466054756 454.633323931603 552.866883560562 696.817900854499 802.329918379324 836.36926253558 786.742089961254 724.994759451629 678.027302510822 607.777739311859 675.10888113749 780.34146365606 484.706970569787 254.489431448592 154.696374347693 121.055608538351 104.42162378694 94.3423510869292 92.4209839770816 93.002199008227 93.4209839770816 93.6306085407202 94.5059920520747 95.5774203962042 95.7104919885408 95.4462198962517 98.1624268801038 100.413734333141 103.158632245163 105.596987405863 108.965742748789 112.135093617908 114.078353890669 115.536384713201 117.436756351799 119.998860324798 122.531788471476 124.482868652842 126.587199127754 128.724391931225 130.236197243752 132.075728483197 135.645622812535 136.307469847843 138.894134943213 141.152454333699 144.381755480438 146.704644756725 148.915201642116 151.368245419705 153.590987398321 155.733844086581 158.420020684267 163.811161231851 171.999907574791 180.544414344663 186.400397663566 192.425547810715 195.447540057296 195.505172388573 195.216823448683 194.363733102103 191.200521963177 189.710491988541 188.684700593863 191.774680427116 192.709455973453 193.736988536772 196.572715403757 198.269440540633 198.765346457621 201.078466548918 202.621783146116 204.674793111245 206.167131561491 208.038973036681 209.506393714588 210.724058990658 212.256087247658 214.061868346446 214.956193922329 216.019544734352 218.138893166152 219.863121043976 220.934549388105 222.005977732235 223.338095596246 224.420983977082 224.420983977082 225.002183097294 226.726238905765 228.145039785553 227.625499824481 222.219508996699 220.877669595265 228.271436703204 228.992588242575 226.810480484088 225.08368673424 230.632029961459 230.131475965622 229.693136715856 229.493661757103 230.010228834449 220.342111733296 213.683370713053 219.495323728934 224.964068154803 224.88577855367 221.809842609703 218.251188968897 213.729423624938 208.861358910388 214.070930303043 216.417751355227 217.430132301774 217.319522534824 220.508280520471 228.702577706435 245.334002152405 278.538342524966 294.521012293707 285.594072893376 373.306057846731 525.409919958401 588.719182325861 586.852834046757 558.573565590339 546.83669148565 614.030962752614 619.327116903992 808.897398996227 1074.30928817923 1379.63689459504 1507.68862609185 1706.73868710296 2034.36554700438 1801.32413872061 1085.01941064002 1014.77363360879 1181.76202733565 1441.34087556175 1541.45634352208 1531.78226060822 1729.62263225374 2142.62007935294 2379.183873956 2878.26875843391 3320.20062379064 3314.84682768699 3610.19207062327 3947.24374826106 3900.57122321817 3682.83723425965 3400.87479027188 3304.48319570508 3726.48121034665 4218.65074531797 4025.64325199403 4109.56025828394 4837.19542286572 4847.82827621094 4741.89965871314 5112.54647232277 4910.86106895247 5025.45592930739 5358.70203242573 5635.42401953458 5716.24500513033 5187.19629039136 4067.85212310477 3991.21746838467 4684.63578352209 5126.68535027787 -9999 -9999 -9999 -9999 -9999 -9999 -9999 -9999 -9999 -9999 -9999 -9999 -9999 -9999 -9999 -9999 -9999 -9999 -9999 -9999 -9999 -9999 -9999 -9999 -9999 -9999 -9999 -9999 -9999 -9999 -9999 -9999 -9999 -9999 -9999 -9999 -9999 -9999 -9999 -9999 -9999 -9999 -9999 -9999 -9999 -9999 -9999 -9999 -9999 -9999 -9999 -9999 -9999 -9999 -9999 -9999 -9999 -9999 -9999 -9999 -9999 -9999 -9999 -9999 -9999 -9999 -9999 -9999 -9999 -9999 -9999 -9999 -9999 -9999 -9999 -9999 -9999 -9999 -9999 -9999 -9999 -9999 -9999 -9999 -9999 -9999 -9999 -9999 -9999 -9999 -9999 -9999 -9999 -9999 -9999 -9999 -9999 -9999 -9999 -9999 -9999 -9999 -9999 -9999 -9999 -9999 -9999 -9999 -9999 -9999 -9999 -9999
1590.85728424742 1455.27573865714 1536.00403529035 810.864431619267 458.873831163976 131.056140512977 93.2813963754863 91.2317038874653 93.3542062426169 94.8695280168083 94.5562545777058 97.7654579601106 102.832489825164 108.664295676795 126.234352475877 155.159183961938 226.579209896596 315.069700465215 484.155419966265 551.482672358451 520.362031020545 493.326684732528 542.224484203606 584.05651948556 581.94272444396 576.583550858165 559.696759475969 524.03484556625 486.235435650187 554.887081989659 589.280563263898 333.672365951618 183.588986839634 124.305819804081 108.106249609113 97.5987757824288 91.6041274959373 90.2781272888529 90.6495606848521 91.1527536546403 92.263542815833 93.7216886017509 94.5540224276582 94.3003765782065 94.3930131455414 97.8014905245303 99.8892532434989 101.807142600981 104.418902920028 107.011980921993 109.751411085101 112.290631853356 113.546532393017 115.540841958971 118.473182527418 121.377494187671 123.409925821633 125.515770783639 127.642594292721 128.103797046713 129.93113465738 133.493935445459 134.164613159615 137.144410636988 140.234254392896 143.297687934138 145.069115293637 147.596974677132 151.333942730404 154.239046350552 158.020235212085 163.296010345953 171.697372139679 181.089881327661 187.497458680021 193.702873141968 197.470745806419 199.854307641948 199.206111474068 197.89881196349 196.188034446837 192.055199198806 190.705085784169 190.362186536279 194.824135298174 198.602576068908 198.051489969791 198.06575923168 200.332983018374 202.00825065504 203.213305392039 203.854306493382 204.801285426551 206.699206721963 208.591691208345 209.74924354304 210.985398203966 212.886037461366 215.083747124983 214.683571411668 215.655081176184 217.359328000158 218.485845719311 219.863121043991 220.934549388121 222.00597773225 222.480849924544 222.278127288853 222.859326409065 224.34782523901 225.641246741751 225.408825931635 220.389552545642 217.423700639321 222.231677885154 225.83599340416 224.361775666742 222.460713967778 226.556254577706 226.688686062807 226.478851683513 225.917190933279 226.078837383815 217.583733139605 210.767883998907 215.706802691813 220.108945254367 220.556254577706 218.235538372181 213.673607892483 209.806383560564 203.826007765374 205.359883648948 207.942400284818 208.033112087427 206.602744743702 207.64631382775 210.836904892715 217.880706624912 228.407729741063 233.446462025476 234.987521724966 231.390239621043 230.17613020208 251.996132942817 257.229509829255 252.291415011608 332.41993056796 507.632292230698 573.15841103828 726.420160562483 927.361058474591 1158.88444722722 1270.82362337208 1266.68173306158 1367.14626937398 1302.72309484106 1165.79751460985 927.908434637233 1149.78055860579 1293.52357773757 1226.7671781574 1315.62708436487 1798.68798176741 2199.30181175922 2550.75217497262 3016.19105674665 3272.26357809798 3528.55407684897 3516.03342727438 3043.83611899495 2993.88829188791 3662.50721457806 3208.92893879944 2760.57353907692 3085.25135508433 3126.43836061845 3197.88860237073 3740.01250851601 4485.27223385376 4592.58091353308 4841.83609215908 5099.7606126404 4864.87747875714 5140.18916479801 5351.98556960708 5556.79725937507 5384.86028477628 4559.24654272823 3746.66313269143 4158.26309592702 5018.73637707697 -9999 -9999 -9999 -9999 -9999 -9999 -9999 -9999 -9999 -9999 -9999 -9999 -9999 -9999 -9999 -9999 -9999 -9999 -9999 -9999 -9999 -9999 -9999 -9999 -9999 -9999 -9999 -9999 -9999 -9999 -9999 -9999 -9999 -9999 -9999 -9999 -9999 -9999 -9999 -9999 -9999 -9999 -9999 -9999 -9999 -9999 -9999 -9999 -9999 -9999 -9999 -9999 -9999 -9999 -9999 -9999 -9999 -9999 -9999 -9999 -9999 -9999 -9999 -9999 -9999 -9999 -9999 -9999 -9999 -9999 -9999 -9999 -9999 -9999 -9999 -9999 -9999 -9999 -9999 -9999 -9999 -9999 -9999 -9999 -9999 -9999 -9999 -9999 -9999 -9999 -9999 -9999 -9999 -9999 -9999 -9999 -9999 -9999 -9999 -9999 -9999 -9999 -9999 -9999 -9999 -9999 -9999 -9999 -9999 -9999 -9999 -9999 3572.03019033092
1296.4962636702 1316.71304866582 1271.53179262288 706.241587205124 416.159009932774 112.218145314803 84.998413919937 86.4864143294278 88.3358390660638 89.1938636217518 89.9084110301239 91.9463077115086 94.7952914269421 101.109627397847 115.77964555768 129.579712767051 175.678011140928 237.431176985355 443.771004569916 631.862987837879 656.692790682185 604.010308783496 612.427426090772 646.210662421368 569.954150006729 483.871897788223 444.26887338545 392.868072246046 406.27343295234 380.975609010834 290.606074417294 214.016408717963 138.085434308592 103.088865477009 96.6865346576838 91.8230222645959 89.2812241660127 88.7880490681486 88.7487031376047 89.220278675587 90.7027156876082 92.3823245816207 92.7029059009365 92.5759738195216 95.0153394617852 96.730062180416 98.7862740036712 100.575330371197 103.286395353488 105.73385363314 108.184832750561 110.804967860793 112.854478486662 115.243377298488 116.859339137842 118.726264363319 120.986390547524 123.958670259109 125.716917168867 127.240607946885 128.82428496236 131.224066946125 132.758724138332 135.827051030451 139.125528013992 141.807606961703 143.911123222879 146.525546333017 151.814082675032 156.850675980194 164.922392568483 173.000715193212 181.114561481758 190.386492273419 195.131400531478 199.536920691189 201.353687973117 200.343547601698 200.584314491012 200.583816479955 200.06963329918 196.983652883267 196.944368218806 200.081724686879 204.97333736705 207.903143714002 210.856406702205 207.242443103386 206.212308068172 205.594188198127 205.92964808849 206.937733993503 207.735439713203 208.737910627815 209.994317159773 211.335100584197 212.551461683963 212.864729399376 216.332392115043 216.205161848468 214.577407667488 215.648836011618 216.872893411182 218.888567210152 220.16772813886 220.775908688743 221.075975756575 221.220406888511 221.259693870692 221.22355190971 222.307653181907 222.702905900936 219.492810501198 214.967861109831 216.463105428288 222.119129781544 220.211894341534 219.934614335725 222.702905900936 222.752538159518 222.589359669881 222.270541201249 221.940633870427 216.305349886438 208.559882382978 210.443978050779 215.248270045487 216.243880581559 215.66252083666 211.148524412377 205.688041647461 200.933881036818 198.645959926795 199.858358297823 199.777954692071 198.463682690476 198.381970919846 199.240693654917 201.909115941161 205.305661726625 209.414518733799 213.827161178537 212.343108097989 208.595161838376 208.724044632615 214.081088456995 210.802903658645 207.677516360256 214.157684250306 233.081837810218 334.580407452445 513.578622707365 839.444767078594 1034.76824515771 1058.33244633962 947.12952957431 929.753912705982 731.84504723355 802.322939917712 1015.36612585989 1073.61877314034 1124.08695927853 1087.90306801411 1188.39371166854 1406.61409307106 1704.33422281338 2359.51991173107 2614.12852669936 2901.55692436278 2717.63443754323 2403.1748473536 2266.41091439745 3002.36707774504 2694.50264726682 2744.49765107503 3449.85424804377 3640.72550296571 3349.65292320914 3424.15737353199 3887.77287235095 4307.14990451392 4585.23889863875 4781.0516480639 4547.78578421328 5369.68429502241 5436.96099947567 5160.44773990848 4629.48061763566 3838.26906903478 4083.05815016327 4715.08562778094 5335.87471535675 5690.06755533947 5728.26304185611 -9999 -9999 -9999 -9999 -9999 -9999 -9999 -9999 -9999 -9999 -9999 -9999 -9999 -9999 -9999 -9999 -9999 -9999 -9999 -9999 -9999 -9999 -9999 -9999 -9999 -9999 -9999 -9999 -9999 -9999 -9999 -9999 -9999 -9999 -9999 -9999 -9999 -9999 -9999 -9999 -9999 -9999 -9999 -9999 -9999 -9999 -9999 -9999 -9999 -9999 -9999 -9999 -9999 -9999 -9999 -9999 -9999 -9999 -9999 -9999 -9999 -9999 -9999 -9999 -9999 -9999 -9999 -9999 -9999 -9999 -9999 -9999 -9999 -9999 -9999 -9999 -9999 -9999 -9999 -9999 -9999 -9999 -9999 -9999 -9999 -9999 -9999 -9999 -9999 -9999 -9999 -9999 -9999 -9999 -9999 -9999 -9999 -9999 -9999 -9999 -9999 -9999 -9999 -9999 -9999 -9999 -9999 -9999 -9999 -9999 3270.00755581234
1506.48592273074 1292.99153667339 969.769937429396 594.541249499211 300.827923701337 94.8932735595816 82.3450903221177 82.1669042006585 82.4810347809893 83.247658025447 84.5616400238861 85.6249404187354 86.3289482315838 90.4313251824126 101.410575344303 108.555252986556 130.842245053731 180.031313077801 238.901316261661 323.800434194067 416.637572747999 417.576103589757 364.875711722281 390.954429762534 396.443819937303 353.638042270055 343.202086160607 336.559045939038 316.131795245029 280.944282371731 229.194665805099 159.665121453752 108.848302315673 88.8643551620568 88.0335587636031 86.6206813891499 86.430772255282 88.0158545728946 89.0044091481432 89.0026350777851 89.3592894239546 89.8909396213793 89.9924139123957 91.4035082683467 94.5109217153792 96.1215121139424 97.8783903936253 100.448140256622 102.737625342452 105.414915767111 107.217514880024 110.301949863922 113.292810486481 113.822686661828 115.0812631419 117.087200718892 118.363132181675 121.776885233629 125.511230718497 125.739837729794 128.955280691989 131.727859989927 133.09478362431 135.601780432118 138.593749590736 141.272517187513 143.07741562297 147.098087920004 154.448408749549 162.894984182077 173.64010712205 182.071999139548 190.614952694971 198.313645049308 201.287117325133 200.107782463614 199.745666954348 198.362117855287 199.655860518305 202.029405591611 204.08940760411 203.544805731829 205.93208584087 210.213857845167 216.668605208803 219.403713420583 219.507074366064 217.493843457398 216.580033725156 213.812170113068 212.881479085038 213.081102411461 214.476276052161 215.543837206385 217.778360309195 219.037930438021 219.037930438021 218.236408466624 219.314276623078 221.867916728965 216.01017479057 215.584993755108 216.655264241852 217.831443196014 218.992413912396 219.362111442633 220.217508563932 220.492339790432 219.911830775823 219.172368668586 219.353788778045 219.087861486058 218.124491802207 212.835098455577 211.537318573754 216.393483107405 215.795030448336 218.055492652182 219.694689794291 218.617916919154 217.984827824791 217.728010457031 217.773837251653 216.041807573258 207.032021745168 204.775825706152 210.622016956729 212.426958527267 211.960449860661 209.043591829039 203.395937514252 198.652294447291 193.391627533693 192.341366066505 192.755475499506 191.714454604683 190.103248113848 190.449904922919 192.058476166986 194.465160446048 198.008124987505 199.870272976804 200.950130008351 199.011175116888 200.701990851991 205.804925000055 196.882930126034 189.627184276223 194.097550238633 200.968669037276 211.737728566385 242.972605846166 353.126072244052 479.81060769822 609.434305399049 696.448019114183 859.411587009821 694.877987518458 634.448716096995 553.485250453549 663.429330298668 800.625126505274 970.531562694346 1070.23414140205 1133.19012760457 1346.9841154956 1934.261418684 1977.89113568373 1908.75020616826 1946.02079003297 2154.59566343182 1825.32150581769 2081.51024434814 2356.11662591563 3077.04172297717 3928.26571701483 3994.94062769788 3969.56048627775 3924.11467820147 4162.85015114824 4646.87374309394 4849.36040653809 4708.48925490981 4867.12566602384 5391.54599696882 5443.57023544666 4729.03614681298 3743.36004951564 3703.85871602072 4643.02579352169 5270.95406756335 5469.87820349805 5501.1989878584 5334.59375415111 5454.33805358529 -9999 -9999 -9999 -9999 -9999 -9999 -9999 -9999 -9999 -9999 -9999 -9999 -9999 -9999 -9999 -9999 -9999 -9999 -9999 -9999 -9999 -9999 -9999 -9999 -9999 -9999 -9999 -9999 -9999 -9999 -9999 -9999 -9999 -9999 -9999 -9999 -9999 -9999 -9999 -9999 -9999 -9999 -9999 -9999 -9999 -9999 -9999 -9999 -9999 -9999 -9999 -9999 -9999 -9999 -9999 -9999 -9999 -9999 -9999 -9999 -9999 -9999 -9999 -9999 -9999 -9999 -9999 -9999 -9999 -9999 -9999 -9999 -9999 -9999 -9999 -9999 -9999 -9999 -9999 -9999 -9999 -9999 -9999 -9999 -9999 -9999 -9999 -9999 -9999 -9999 -9999 -9999 -9999 -9999 -9999 -9999 -9999 -9999 -9999 -9999 -9999 -9999 -9999 -9999 -9999 -9999 -9999 -9999 3641.00871827873 2993.51678643866
1534.34845354838 1528.97924061049 1017.31197121762 500.647292459366 131.659000410998 88.7645313207621 78.5328770224166 77.3349627044944 77.6991144483342 78.4254566845422 78.7895620826008 78.5486716725013 78.1321664721908 78.9871926336346 85.4237367271831 90.6648981799691 106.888808549463 134.546794156581 176.677418519981 221.700334944576 245.410534809402 249.20558184223 245.282698017439 257.73573751134 258.825789554131 245.830608360049 272.830167768735 296.484653263608 288.42075953392 231.584994438703 184.730483751779 113.542234635446 91.3681203304358 84.1791542864125 83.8495572241671 84.2716891904732 85.690511437286 87.2248608320242 88.0964449384192 88.3725213172559 88.8412801514704 88.5424113493664 88.9234543739639 90.3369506304587 93.4443488039287 95.5527077598396 97.3701225335938 100.001808798904 102.590996944881 105.100780449711 107.252151263938 109.460968916152 112.524198658072 113.522963614352 114.190359044502 116.015772374778 118.289051700397 120.310760011405 124.143716594915 126.253931917702 128.035333020063 132.035509857416 134.401482934375 135.522784946538 137.739834547623 141.030812346814 145.162371990507 152.998467337062 162.38601320996 172.249565881062 183.214462866484 192.249742239677 200.073972233643 204.898384950598 204.364302780545 199.551872472124 197.874481272453 197.886941308775 199.115275011424 202.625577990345 206.647175570512 209.504524802729 213.65514314372 218.635327968249 224.174192319572 225.274696763074 226.458422093352 227.130282274929 226.056077062901 222.707312990725 221.646225277569 222.852965689195 225.694851038409 226.902656654997 228.5588258745 229.752213879165 229.752213879165 228.618820538376 227.460519588164 225.143500295188 220.281340817314 218.288669491257 217.799260787418 216.073614623732 216.849557224167 217.583385399815 218.849557224167 218.926248554759 218.665681835416 218.049373336253 217.125501415696 215.596493573242 215.773002445822 214.936129065594 211.146033665911 210.780311977453 212.332579401364 216.039904103146 216.44808510359 215.48264631853 214.345273000909 213.482576077314 213.855531774276 214.274335836251 207.360595034247 201.184717186159 204.716286457053 208.495574116767 208.249186216958 205.502236132471 202.686806053302 198.276765067688 192.564617120335 187.580565932402 186.057948565663 185.24714885358 183.720600664484 183.776514160386 185.15550322246 188.392680874585 191.225948508841 192.088421732396 192.959540426577 191.804459790936 195.744490507899 201.072817992303 197.121110912191 187.095587625964 180.379864831014 184.715179397284 193.231151503081 193.937657034686 195.795382232844 200.67224646445 218.743312688328 266.818987258218 364.024124729119 463.144282118825 593.583726567848 566.604266297955 448.653514181862 551.715591539489 800.047696947313 1176.65470559944 1318.44508226577 1541.23033021524 1826.64136005807 1606.34515055805 1454.90961479639 1643.45785983983 1561.90714927333 1463.45204288427 1879.15873527667 2273.75118039029 2813.9881435609 3077.73791089444 3140.28386580842 3368.8965627631 3670.03171534797 4357.11949912187 5067.93401996914 5399.23875313408 5696.03140079077 6006.22003816942 5639.26891034938 5187.37297491508 3912.94975020623 3976.60491617033 4530.80333954368 4868.45152743913 5025.87625909879 5152.43974710436 4955.26949079741 4876.00439652446 5322.570424843 5303.6023376963 5496.1294728001 4993.46499504942 -9999 -9999 -9999 -9999 -9999 -9999 -9999 -9999 -9999 -9999 -9999 -9999 -9999 -9999 -9999 -9999 -9999 -9999 -9999 -9999 -9999 -9999 -9999 -9999 -9999 -9999 -9999 -9999 -9999 -9999 -9999 -9999 -9999 -9999 -9999 -9999 -9999 -9999 -9999 -9999 -9999 -9999 -9999 -9999 -9999 -9999 -9999 -9999 -9999 -9999 -9999 -9999 -9999 -9999 -9999 -9999 -9999 -9999 -9999 -9999 -9999 -9999 -9999 -9999 -9999 -9999 -9999 -9999 -9999 -9999 -9999 -9999 -9999 -9999 -9999 -9999 -9999 -9999 -9999 -9999 -9999 -9999 -9999 -9999 -9999 -9999 -9999 -9999 -9999 -9999 -9999 -9999 -9999 -9999 -9999 -9999 -9999 -9999 -9999 -9999 -9999 -9999 -9999 -9999 3568.01552564329 3579.59941831086 3176.50105038979
1580.74325850912 1432.66068652166 878.343065802234 324.504436950719 99.0788591328568 83.0107497561994 74.9245943166377 72.952428565257 72.7667513398462 73.2765443912353 73.5613766039903 72.9913652926236 72.0426732560686 71.2523373214113 72.6517597778707 74.5447072404107 77.1205072993371 90.0509306424289 120.381429992239 160.239238463736 184.891639469993 193.055872815111 190.576626792533 196.723881816796 211.586492436498 198.309166649023 211.281430491471 220.296989389839 210.850902759154 172.282098027638 135.897109437087 92.8420156065455 82.952176524367 82.3533502679692 82.5444363337486 83.7338599975135 85.3097880758508 85.7067005359385 86.0825430800809 86.5839619795109 87.4307722553429 87.4256103753192 88.2202786756327 90.5052833039545 92.3729204598144 94.5157771480731 96.7573396051701 99.3824206080765 101.679865496858 105.100780449711 107.7218174079 109.666216741689 111.638604306142 113.428020067031 114.468218725564 115.723235649571 117.47958174694 119.858626274217 121.389608892857 125.217594578368 127.511850696902 130.814939560462 132.795564972395 134.310895240172 137.23532658239 143.334017567757 151.700035916833 161.699567965263 172.626219387133 181.597129037965 191.842418289149 200.404783289872 205.606743611912 207.460417588898 203.845327829216 195.459996666634 196.177720641873 198.949076048359 202.597129047498 207.90221344771 211.89432820711 214.646382726139 217.546418399414 224.095050025174 229.054274372537 230.800162865755 232.246478402503 233.610415986564 233.466768632812 231.528692135087 233.05528571025 235.097815548729 237.871115137058 238.136852126796 239.358086506176 241.310544185693 241.759796784369 240.964309449582 239.892881105452 233.798168534099 230.386901782048 227.852670041236 220.877385168586 216.439573308717 214.706700535938 215.677793608155 217.353350267969 217.20383477255 217.230516194379 217.12274417856 215.339523202482 214.144531458965 214.306323763026 220.477476922758 219.635730616568 206.931222891241 206.433972202101 212.056520539102 213.060050803908 212.693139898271 211.183372304375 210.389691881899 210.912066276382 210.638031486735 208.622491745227 200.313992177779 197.590558155932 202.771915964686 204.396733429659 202.491807539388 199.602182730722 196.532780240202 193.298223808664 187.523275178093 182.064664498469 180.233275680398 179.478858048069 178.868637385052 180.42721354195 183.727566458224 186.147213336591 186.744961810588 186.769614769901 187.279810973038 190.879851122131 196.045887415155 192.620165689955 189.284850891104 178.740272928387 173.661646748332 176.975688493422 184.472291603654 181.027423394957 175.973817389851 173.872768508944 177.901006047613 174.845607683078 190.58810945171 314.221200922932 464.154828623511 512.2480224809 647.546171999981 704.495791342776 1046.12091255757 1335.37878183294 1534.34044085048 1678.13023822676 1349.28948109449 1114.70590258027 1203.6929017819 1039.45679218589 1351.95812057645 1595.44043288702 1719.30070077622 2083.97676659471 2284.66633247912 2467.35527642394 2718.56538580957 3164.25150758941 3700.15106275115 4311.82078460664 4389.55589788695 4692.87100080513 4907.22684306216 5241.13923645214 4361.27902647533 3151.2831423197 4197.01904786427 5238.44094681758 5423.43084727227 4962.04518803917 4516.4751751169 4408.08926163906 4780.49251709879 4768.04509937961 4503.96347269824 5141.8819820575 4646.96926281835 -9999 -9999 -9999 -9999 4898.08837497788 4698 -9999 -9999 -9999 -9999 -9999 -9999 -9999 -9999 -9999 -9999 -9999 -9999 -9999 -9999 -9999 -9999 -9999 -9999 -9999 -9999 -9999 -9999 -9999 -9999 -9999 -9999 -9999 -9999 -9999 -9999 -9999 -9999 -9999 -9999 -9999 -9999 -9999 -9999 -9999 -9999 -9999 -9999 -9999 -9999 -9999 -9999 -9999 -9999 -9999 -9999 -9999 -9999 -9999 -9999 -9999 -9999 -9999 -9999 -9999 -9999 -9999 -9999 -9999 -9999 -9999 -9999 -9999 -9999 -9999 -9999 -9999 -9999 -9999 -9999 -9999 -9999 -9999 -9999 -9999 -9999 -9999 -9999 -9999 -9999 -9999 -9999 -9999 -9999 -9999 -9999 -9999 3611 4215.65756131428 4037.61035804671 3610.35040080686 3809.98227824048 3742.93014913515 3543.00741328946 2885.82765022631 2708.9418147316 2836.26833449726
1356.14563403536 1183.1981291287 833.024693389897 241.006052350825 100.278659257081 83.8323127707504 72.9710022073146 69.2153404507309 68.1276876954198 68.6374807468089 69.5450500369281 69.1931160319168 68.1216876877872 66.4790236183452 65.5051608421724 64.0619736569105 60.6967924684536 62.1283052677125 76.2836620817098 103.847637827882 123.416369741104 124.462566182897 123.245291599336 129.625691187246 138.93553835616 138.947038173407 134.467955010787 124.330255026668 113.330520350924 106.2897538453 101.61706216038 86.0521536010067 80.6734548514928 81.4428240555725 82.0833083949748 82.7522975337813 83.5638438477099 83.5638438477099 83.7277011074638 84.314414670891 84.7679755398534 85.4169969267606 87.6758168216342 90.8150702553788 92.7306218051352 94.2207444708934 97.2856121474142 100.821126127261 102.699655194416 104.837298347182 107.473405475717 109.65350265126 111.69784474548 113.554711848054 115.24400627942 116.513574957492 116.339963305478 119.096982632674 121.022321563411 123.46723739172 126.350578954693 131.263940145471 133.957413498478 137.396599025758 143.477390207201 153.219005888057 161.479126984462 170.270994718178 181.189408057359 189.59500242714 198.450731539891 204.137416569818 207.016800624287 208.474456849108 203.886453038446 194.263932393167 197.336202660705 202.67582616687 209.971407971321 216.293510311439 219.489684662115 220.394530102144 222.5584478985 231.386065492724 238.17540898563 238.080327024502 239.7965178046 245.017675488294 244.640478029144 245.121566904462 246.418319796348 247.821130746428 250.213625212884 250.473220458694 250.826576003609 253.423321572692 255.136867800768 253.397083625174 251.409430015782 247.572129435665 245.075652267405 246.724479761513 237.547055110764 225.720707315482 221.98039141066 219.455661250417 217.088549895686 216.504261584101 216.04723815806 215.56384384771 214.431533626234 213.428780270096 216.394476213046 238.793419587779 230.265812242809 209.540120380037 201.366160417143 205.347037511063 209.339867244722 209.742325543164 209.001927153348 208.059583651539 207.845765771565 207.19314148941 206.325839454655 199.662266800245 193.53174633803 195.780592920746 199.413869121481 199.602182730768 196.607087715127 194.351161444547 190.453426821701 187.754782729208 183.489448994035 178.239852264005 175.963836715563 175.193144671596 176.497990072007 179.514121060102 181.861499960134 182.12768769542 182.13044004859 182.571991948766 185.192194797015 188.773381599912 185.998813934184 185.804710020792 183.010911955037 173.402629583548 167.666487120631 169.745144901774 178.34937940861 171.715540715277 163.813092007538 166.172796874096 159.052342970257 155.085763659503 173.176254067103 224.535989432237 320.985737748199 575.625002234292 776.533154293214 760.857908021073 828.78929818676 1135.95560089407 1563.18949674675 1243.03873213076 993.857942336612 1135.23440103064 1134.85940081951 1387.67285221137 1675.39520856129 1847.37875250775 2030.53664361885 2162.0257650054 2411.76552033493 2836.05896978821 3253.51378893696 3600.59768569025 3745.4124876938 3555.79135326395 3026.1509477346 2687.87237899371 3499.27021218902 3241.44934546408 2715.22825293998 3430.20239582502 4567.91435927493 4962.06124670099 4953.71303748531 5123.99666235744 5027.38888592803 4537.63318739419 3719.96134491375 4155.62208369002 5425.96874801679 4707.57258049286 3920.14019478635 3352.7630251117 3861.87885822426 4958.94832316246 4913.44505016977 4683.32445864309 -9999 -9999 -9999 -9999 -9999 -9999 -9999 -9999 -9999 -9999 -9999 -9999 -9999 -9999 -9999 -9999 -9999 -9999 -9999 -9999 -9999 -9999 -9999 -9999 -9999 -9999 -9999 -9999 -9999 -9999 -9999 -9999 -9999 -9999 -9999 -9999 -9999 -9999 -9999 -9999 -9999 -9999 -9999 -9999 -9999 -9999 -9999 -9999 -9999 -9999 -9999 -9999 -9999 -9999 -9999 -9999 -9999 -9999 -9999 -9999 -9999 -9999 -9999 -9999 -9999 -9999 -9999 -9999 -9999 -9999 -9999 -9999 -9999 -9999 -9999 -9999 -9999 -9999 -9999 -9999 -9999 -9999 -9999 -9999 -9999 -9999 -9999 -9999 -9999 -9999 -9999 3913.28307128859 3743.85662742432 4113.98609990711 3279.37172529201 3365.39416131663 3411.67852182612 3647.37742790937 3151.85363419956 2719.19682523919 2493.05256124798
1352.18677321023 985.597341738267 826.203885461846 290.453179055741 127.277973522458 85.8293033140263 72.7016398760814 65.1081015927028 64.1880660697592 64.7387889035358 64.9643176911272 65.4303604783208 64.3357383595328 62.8790188953387 61.7645459671852 59.0139108021416 56.6196282393977 55.6518117578491 59.1787554249259 66.7624513812035 77.1150658217341 80.2491889787624 79.9521387577696 80.6116843386936 82.6806431387238 89.1345004309671 88.0282135405632 80.1208434926214 78.1923955619772 80.1824085316945 82.3375053007543 79.2587002129354 79.3631385461089 80.2576595729917 80.4209871594813 80.7879171582381 81.7670738855643 81.8080137173789 80.9621141608408 81.799390249416 83.5643057018773 85.4235524710107 88.3902916432496 90.8637379956039 94.6042487285487 97.2734289365284 98.9485566400226 101.625045061512 104.0850048927 105.233668975952 107.315065482099 110.314738204839 112.404907414827 114.167903815651 115.665986735854 116.167446986227 116.028011385663 118.815060708819 121.027286711169 124.208391015893 129.14030877574 130.528889833048 132.984557467607 138.62448888184 148.119001032355 159.750165975068 167.61108987572 176.473902210314 187.759839898092 196.305494415681 202.619093310752 207.862754465778 210.185303515476 212.447456843784 206.162947821536 203.710561475019 208.212258979186 211.961010397018 216.556748949063 221.706911383316 227.033558473473 230.651333575881 237.076173966412 243.565197158538 250.570521796159 252.560707204501 257.053615112499 262.404516246179 262.725260196912 265.449900871558 264.300750772632 262.284436832295 262.815069590304 264.666053276306 265.970815782057 268.727369224771 270.566655294548 268.456134299528 264.055458463071 260.659044973972 266.408230714409 268.326241159744 243.370936788701 232.615585593705 229.617293398732 225.692323718219 221.611637585012 218.862861855964 217.416614600094 216.579012840519 215.854957032047 215.411568533611 225.178545600203 255.37810724429 263.400489482862 221.842530425687 198.913249792101 198.430394539605 203.702079137231 206.631480739222 206.193141489456 205.524177933547 204.962129234981 204.494107517845 203.125290336139 200.203300613004 191.639835074797 188.59354444736 192.498641704814 194.872988316099 192.56885503343 190.639771645744 188.386251954071 185.18505142611 182.498866330737 178.730919950003 173.495229359544 171.189353218994 172.290073207159 175.856442504625 176.99643708942 178.534110085777 177.841974318963 177.940255702619 179.783440016318 184.101427486523 183.53812202951 179.917256508381 181.045216741412 176.350467267941 165.783676235229 161.085742631027 163.158696180228 168.031028118468 165.486903623143 163.860920365176 148.079253496858 146.110129132422 154.480117934761 165.014979650376 211.248493489361 346.495001391327 506.793482514591 692.792832218218 723.583015222777 706.504529856364 990.89659217154 1097.18478144075 1050.35416910311 1403.66887543859 1496.96693259616 1506.64135242591 1862.330379087 1925.74633225251 2019.59894674377 2435.33570483053 2628.27624056273 2835.27085492472 3045.79504277872 3084.52174780981 3051.99131285762 2865.48677281911 2606.16420486768 1908.10948986023 2602.72996524563 2293.54798498954 2189.44170269043 3126.66310688979 3646.78125159871 3715.33747580609 4091.23605105877 4133.20336325054 4456.98535747805 4385.94103003982 3219.59139851485 3826.45160473736 4685.63440938261 5458.89648300695 4740.98682244707 3645.2475802377 2892.11044501129 3650.68399367254 4492.01699349376 4763.82755504935 -9999 -9999 -9999 -9999 -9999 -9999 -9999 -9999 -9999 -9999 -9999 -9999 -9999 -9999 -9999 -9999 -9999 -9999 -9999 -9999 -9999 -9999 -9999 -9999 -9999 -9999 -9999 -9999 -9999 -9999 -9999 -9999 -9999 -9999 -9999 -9999 -9999 -9999 -9999 -9999 -9999 -9999 -9999 -9999 -9999 -9999 -9999 -9999 -9999 -9999 -9999 -9999 -9999 -9999 -9999 -9999 -9999 -9999 -9999 -9999 -9999 -9999 -9999 -9999 -9999 -9999 -9999 -9999 -9999 -9999 -9999 -9999 -9999 -9999 -9999 -9999 -9999 -9999 -9999 -9999 -9999 -9999 -9999 -9999 -9999 -9999 -9999 -9999 -9999 -9999 3373 2979.51395043867 2659.39692228831 3925.37538470682 3181.05908565839 2362.04694434555 2381.28636977758 2842.31803687899 2702.53109336624 2651.35253103626 2936.68547288167
