NCOLS 305
NROWS 24
XLLCORNER 66.343706065
YLLCORNER 20.040182325
CELLSIZE 0.0892857 
NODATA_value -9999 
-9999 -9999 -9999 -9999 -9999 -9999 -9999 -9999 -9999 -9999 -9999 -9999 -9999 -9999 -9999 -9999 -9999 -9999 -9999 -9999 -9999 -9999 -9999 -9999 -9999 -9999 -9999 -9999 -9999 -9999 16.0090073079938 11.1435743548434 22.557151650567 37.8084572176188 37.0911152424732 40.3149084303467 59.112550076023 78.4390066316679 102.274395017417 107.899890373513 106.32454647821 123.195050152206 158.626931183462 158.228610224071 147.288826083616 132.676127475758 136.497987165843 147.847025071855 159.624071341757 171.169434171793 191.278163166463 205.243466883368 217.583432720392 242.799241656597 243.316698779999 232.669137174191 192.090752608584 147.819411831229 121.483674648211 91.2430718643771 62.9262767220003 39.1211004666519 18.5798364915968 9.02314979199658 7.22539564831803 5.65230003641837 4.44710430687434 4.96317404876704 -9999 7.28000210108069 10.4550223063664 12.2025313880961 14.5841323394156 19.6875545345807 21.8577073697695 22.8268068746212 26.1412817287509 30.6400611172966 37.2376512073142 44.235985019323 50.5561306111927 62.0264459379518 76.2889118010248 96.3574071203199 135.722499088311 160.040245306279 204.1316086583 272.545996423534 321.97948631437 278.206144581358 206.839790950235 222.578519565902 286.433035486734 245.581147502525 160.964804765239 155.24772259453 157.806538643798 160.708745813497 156.533228342264 155.715707014832 160.794116190598 163.064672330309 168.60385979845 173.911945718821 174.683430905368 181.315841184822 196.956363242433 193.057002763713 202.921440368103 211.447732471359 216.726281125157 224.726024665897 251.757992581417 273.264695292528 262.660194336371 248.840053143334 256.868650519289 272.52896870039 288.369512119974 301.757693204569 322.990032978787 374.304467713169 469.372628889955 456.250328429464 525.040497228185 548.664221430813 576.24324200981 553.269753119533 517.886291978939 485.382120617585 425.068184466911 424.971951352048 480.846598362648 538.67748783123 606.249501086139 713.607072038093 742.506077826704 759.259548286927 810.321709851411 761.120748320243 734.355792955729 696.223602229023 651.910274332712 638.507505230322 641.748385071704 629.728874725667 602.057550373168 602.50550391344 593.450343915122 537.744412675299 503.270422795325 464.237914307995 389.764940664258 350.887076901262 395.890067843055 526.130775865757 583.325225819321 588.01841560234 561.618505137444 563.804485736057 595.405850059059 673.314166043557 734.392748216278 756.889789136499 795.847421695072 586.510148523404 404.39348306624 356.457958910685 334.843467006157 321.771186344838 307.846093354607 297.682769052197 289.328113090157 278.500280311725 276.086224940259 280.053747967502 279.316842861654 275.137598090345 275.83112999667 289.529002507425 280.676472025145 281.218494797926 268.605494645577 284.952399071342 330.123146275321 355.867934733745 301.057509568511 268.734147077544 288.072347548447 298.817419427313 280.895177842463 278.491324017578 313.087276045473 431.008732802097 376.475464347324 311.599341895683 307.107890035239 274.840771435998 257.602696491894 274.449954903544 264.705559157927 272.823173084879 298.055766086846 315.360088329659 298.577628478054 310.981340382512 240.663474092764 192.518691619319 274.439352648872 402.825387817185 490.278217156351 533.314528549329 540.149347277159 503.247226698219 516.300982510088 450.542957514679 425.511869361548 420.718654190523 433.765276337776 411.648971406958 321.324046384217 307.699697472328 333.915398349664 337.323086974739 350.461272924749 216.455975226684 103.589713400848 86.435208377078 88.4724152892201 78.8728493396951 75.4746025025847 62.6760060322805 39.6026523634517 36.3925910615353 30.5835766382352 17.1629878110677 11.9101058537066 8.52363810737766 5.4314185249595 4.47843880300713 5 4.93985436145866 5.35661260895745 5.31667306738196 4.86775635711641 4.44608380282192 4.04316419443298 4.8028337779562 4.85950266692781 4.04558177990489 4 3.98577012691092 4.02498028460134 4.73140865728827 3.83929609950364 3.89944122661033 3.92837605938889 5.4737505107762 7 9 10.6978828920193 12.6690329757077 11.2514821207994 9.10862543258065 5 5 5 5 5 5.31411273269537 5.01954814372609 4.5171140365865 5 5 5 -9999 3.87425575713461 4.94568410124417 -9999 -9999 -9999 -9999 -9999 -9999 -9999 5.64909260837144 12.5416265136904 11.6613473985084 16.338816844715 88.7235923729646 93.0959067394262 150.541982350074 334.666432272471 391.70781092392 235.613246096295 285.735509793113 297.998785972225 415.566561378724 643.503980920807 929.584968620466 -9999 -9999 -9999 -9999 -9999
-9999 -9999 -9999 -9999 -9999 -9999 -9999 -9999 -9999 -9999 -9999 -9999 -9999 -9999 -9999 -9999 -9999 -9999 -9999 -9999 -9999 -9999 -9999 -9999 -9999 -9999 -9999 -9999 -9999 -9999 -9999 10.6201801519773 21.8452715884439 38.3547696016977 34.5224447412039 34.4863027316229 56.155830326942 77.0051184695737 84.8757818957371 105.563068165686 154.930414143959 156.394145212405 152.958912673153 164.759014876923 143.240728763121 138.681783377907 135.188890456586 136.622548097256 147.616927429626 159.128317590489 172.28194098168 184.847545928764 190.468021317577 199.778438828075 206.731844232254 217.848218127468 178.185391596498 134.755668195672 99.4895763531052 73.4395770375816 51.5229064452811 31.8388965942926 15.2098383749129 8.10922017100249 7.02397523581857 4.66305167568702 2.41872249900888 2.95542147889885 6.49295189365677 6.19368166279153 7.44212913481779 9.03077546917493 11.9546914030747 14.6251430362525 18.4760649378723 23.4472840926652 29.2111485160595 34.2829588918123 38.7645723775584 41.0719806191581 45.7286037837488 56.8445478907908 74.5795972047069 102.234420216848 164.217199961486 245.709577488736 284.572289125171 353.331478143364 446.131101049234 361.147769709017 233.286552976845 224.893913690522 232.223776119058 194.149358686691 168.475312295651 175.937182347852 161.980154775766 164.912876880039 165.74165050795 175.075396531448 190.770957141371 201.061107256872 208.75500855553 209.060907928746 198.390690914474 203.982235262319 240.076599807909 245.288970925588 257.114978044046 236.944685792204 247.201370686582 244.599870106674 290.544094357772 295.550157979704 274.073106883796 258.682905847955 268.920339707784 281.644513389707 301.136811859858 337.404531737417 390.406217293883 443.828580621532 526.628538505801 528.17708852952 615.022257173846 661.660699387355 620.608916142574 601.816029982417 594.856565211324 564.795128764864 489.975772364526 527.769941171697 664.694885771052 737.799996416975 737.661278208302 728.50167141762 692.371120561877 685.539334478944 755.133062132832 714.121870280516 686.387298063364 681.263493330362 659.000509753675 614.093303588388 616.904705797836 609.608072592493 610.106329361821 615.610118032908 609.073936931055 552.228880756768 519.46027985987 497.257030996444 415.144704928789 341.814416319264 347.249337751307 441.970617063957 551.530176316608 622.774202729299 633.80191654887 589.077068531917 580.98181442533 588.857638506895 616.422911329159 689.878970808764 740.174450556358 579.167927767973 367.371144426589 337.657793225357 316.903454918998 307.106010922948 298.804175007902 286.87607104596 278.742702850997 269.967642362081 261.993689542832 263.359799985777 270.537523638749 265.57910483321 263.892755563711 265.007318868423 274.474763007247 269.806991701521 258.00274576175 259.819269661399 259.820168993929 253.459820948651 257.311302824432 268.85504420316 278.352799486493 294.798844405667 283.325191474448 301.162973241807 301.502299404929 341.513773827385 316.427115531302 285.964074073224 253.834863368517 234.625735017511 239.417507431188 242.299344320942 249.330118419419 289.420798292819 359.52351601303 443.271976163532 456.748902685666 387.097132678559 315.031964475901 229.686562003307 282.981236192849 320.281354288598 427.895718592473 581.325259708869 572.89321343121 526.618965284701 469.929660629051 419.260649310601 395.713715016235 406.363416437062 429.710873643903 409.717114679769 371.444822812425 470.259727550506 407.336842584578 565.992841083616 328.736554710588 224.015114690055 124.132338645393 72.3823499124101 73.6362237011653 72.5437745799144 69.1973144883612 67.9232600069329 54.0682861378527 31.2937763515395 26.346401913365 17.3344471981491 9.11159171716813 5.08282061480287 3.30996542220972 4.02065899091214 4.36507512948681 5.34085111206437 5.9505138500242 5.48287959848225 -9999 4 4 4.07167343220053 4.08927555637107 4.00484851384845 3.10486607534354 4 4.0142819016347 4.06861684957532 4.27579667476657 4.56987622991383 4 5.55135165715702 7 6.51678470601473 9.06284298879071 9.21477181279625 10.7485178792006 9.10862543258064 5.91072444362893 5.83008528405705 5.15997231603856 5.97934157732064 5.35913689079393 4.46353290473851 4.60380102573154 4.04616564332355 4.08927555637107 4.69032702753125 -9999 -9999 -9999 -9999 -9999 -9999 -9999 -9999 -9999 -9999 -9999 4.28760993214663 16.1333457330042 20.1813841773984 19.1171596328294 62.4756385081222 193.27550035392 123.737322804674 331.752841729512 443.971826196633 342.8529272569 -9999 282.229151467936 372.325392881468 596.044296525333 -9999 -9999 -9999 -9999 -9999 -9999
-9999 -9999 -9999 -9999 -9999 -9999 -9999 -9999 -9999 -9999 -9999 -9999 -9999 -9999 -9999 -9999 -9999 -9999 -9999 -9999 -9999 -9999 -9999 -9999 -9999 -9999 -9999 -9999 -9999 -9999 -9999 -9999 18.6216048441541 20.7329199934388 15.9772591108009 20.8379740204973 36.0575469046291 52.4788489839253 60.6452274795729 90.5754926438198 127.30165441078 111.768525618531 113.415724880525 126.082500972317 119.503476635927 120.32917544509 118.605524472547 117.561559204929 128.441402921444 137.308562804208 150.593775476947 153.722497520289 157.911436301136 170.745577968178 198.941433567704 189.52856873635 163.632023644558 126.488457757941 93.7969415536977 69.5540793251066 47.6892655900496 27.2790261186542 13.7247164993482 8.66818358684725 6.54536774873854 3.60922176221926 2.12793983810063 -9999 5.4917261702475 5.19344320690602 7.00285585505174 7.2575537306511 8.95675686437826 12.8938434479102 18.2286512349766 24.6016504594533 29.7615802890254 31.7132007898966 35.7155527365579 33.9136988986188 40.0903687215037 45.9191510603192 70.9886807035278 133.53984160938 248.517570722269 305.355451098307 266.000581531296 259.279924693249 282.527128610536 323.747811811748 413.560791439584 488.856402119102 458.953234617882 313.889301180705 249.573215794505 346.96674174591 305.148497906189 232.20252045123 215.009699016463 210.781983242869 220.666355850556 232.50007689418 242.269892509378 244.084574064063 222.251350212052 224.880341578101 247.754628425326 282.319194568063 298.089222313302 280.341783503829 289.401574589426 297.925988521731 316.636611024754 306.742334642035 284.082816350023 275.575859199251 288.569848066452 310.017245659405 352.342422307519 389.926010963008 453.101078069294 536.649614203924 567.323008151805 550.787468523031 580.002894411922 595.074609452936 614.53712849187 627.908571998404 621.693235564101 632.272676650259 659.456585839548 723.890997627258 735.695273357211 722.731032690294 705.246711857057 676.716781140123 684.085280240529 603.21337317011 703.097613434381 713.296675276556 670.912718783752 637.745118448527 608.549870003533 586.107486795454 574.595302350152 560.354923129054 585.36411029512 621.393959017898 617.701925739079 561.470661435308 533.039841744988 528.589629040991 423.286855148035 330.222055586514 342.096114991468 486.442410631686 595.053027950208 623.289342088576 629.866613790538 627.695238962912 586.820788383328 580.80845369589 603.452879278009 660.600714032652 666.380158148257 447.927054581586 358.526535547609 323.459108114785 303.142803206473 291.11059349665 287.197442519385 284.04145741948 275.477985311338 266.399314812126 257.355528611466 255.438490993867 262.712515981532 257.899283273163 254.407581268216 259.750472068935 264.025788654098 255.595090185145 256.767256833859 245.451042921684 244.339763550941 236.751954867266 237.080122515356 246.985087482006 237.96702642264 272.315901474057 275.860790506379 264.902360172308 290.303845106146 310.504722753681 360.635436237255 273.663407246729 235.349279741358 223.527142023502 223.709231468655 240.101558170453 250.086558821651 281.578964417978 300.518784092126 351.312477145325 540.569760441359 449.239585135196 337.524525162013 251.956416515425 205.594654681389 283.64818839522 432.024779745348 606.059195838537 593.996424009432 572.636313293723 490.777411572066 429.147903150667 391.555266360932 376.958534776253 377.793215668379 388.228890203484 399.211477608023 437.80387985643 599.059142752218 731.599513818668 652.719950495462 600.511101009469 273.081960159636 73.3642621783264 58.9393539483238 67.2497080521514 52.976040870226 52.5801043537022 54.0279496896077 33.0870257939255 21.095008726851 16.2399187025768 10.8790011915934 5.71808215383014 3.15997868096975 4.22727705478771 5.28498815694313 5.98883235168135 6 -9999 5 4.98822124880211 4.26380090192321 4 4 4 2.98349223579602 2.20962809356442 3.8428796181717 3.245121141366 4.30283218672337 4.62573946916706 5.78275549977035 7.48288278094766 7 5.69183087985696 7.22510745760598 8.80986844391198 10.7485178792006 11 6 5.9984197369399 5.98500784763201 5.77272919654731 5.00703790521944 4.98883223808507 4.11658286219452 3.52573220486605 4 -9999 -9999 -9999 -9999 -9999 -9999 -9999 -9999 -9999 -9999 -9999 -9999 -9999 9.42289819190473 31.9409749466946 31.5457723723655 60.0991450943584 204.354439946855 126.491659869007 297.825057212307 573.093348780028 -9999 -9999 -9999 369.658619979234 -9999 -9999 -9999 -9999 -9999 -9999 -9999
-9999 -9999 -9999 -9999 -9999 -9999 -9999 -9999 -9999 -9999 -9999 -9999 -9999 -9999 -9999 -9999 -9999 -9999 -9999 -9999 -9999 -9999 -9999 -9999 -9999 -9999 -9999 -9999 -9999 -9999 -9999 -9999 -9999 12 9.8663777298659 14.5155727856689 26.8086800579777 109.316780437441 125.034030928208 82.194877782139 109.914831528968 104.060823838 84.1608357542786 87.2149559451375 87.1652015944113 97.7918129407088 96.0298730224941 94.1234534783421 112.148391544459 121.265944291869 130.66991667474 133.974548502622 152.759548680899 172.690113265158 192.678787495349 168.870737010707 130.098086882635 103.085527874808 77.4970190971902 58.0649976407672 39.364506116059 21.7079931326397 12.1201240610362 8.78712534018004 7.49329070116916 6.24993571291172 6 -9999 -9999 5.00474667351858 5.21359800243641 6.7231145827391 10.1416847951289 14.0357989645191 18.1511873719501 20.7819979655504 21.456323069127 26.8088364533205 38.5731586062375 50.4709228663604 58.3934906928832 80.9867240810473 92.6478463848766 185.159458477614 233.162730082918 283.783926504138 394.766180863301 400.778743577329 398.193636628469 446.918074485776 673.488683488813 755.325447143955 618.136827704817 430.550476179665 342.106129935497 354.245736358869 327.183997849789 369.198544322119 288.222535385327 262.737977650911 266.862347492341 264.654565715918 264.547214974399 253.717983918898 235.961370934534 233.857506738378 251.303699414641 280.070397034969 316.789636049711 341.449173245682 347.32084106995 339.897850021262 322.711796191369 295.63243070271 284.203000771508 290.809755487429 301.700443876839 333.638631494775 387.666244864473 466.207345804838 500.455034555421 462.241092405039 464.404704117569 459.471965935664 519.50896555985 523.852854943052 549.224271585419 595.098147008115 626.092258464989 654.257175604562 706.97382548506 755.749283342017 756.200116838572 756.492128186302 755.259820479812 741.139001401625 677.493070118029 542.263381390114 577.388547613869 618.602390656426 641.003987497589 622.670723789449 616.358918628322 590.337718656412 558.774906468332 555.437059679404 571.016758418466 573.152804699321 551.851882431777 540.571233783839 516.863172208646 454.886351647244 400.011548839838 322.955711540126 314.374939387281 345.579335291628 484.392275531458 635.866478591446 630.620309832073 607.184839121118 559.479780749666 580.830493245023 626.192888532282 652.374266387082 497.015136834536 385.419964615918 331.329327228686 310.530076442262 300.551430071918 287.0123200994 275.607605221719 270.168231014093 266.94683609895 263.366879896683 255.149252984538 249.518323645498 248.158298230977 247.827929619462 248.019899505783 246.651826589703 256.980876410495 245.379291893127 250.365726745551 236.855976120327 238.609745898951 231.510085446838 228.680468046386 234.757125734156 229.531965842392 223.106394263496 224.95513066931 230.749775950729 231.06083900622 271.255459886816 291.409457248331 266.564511742687 237.348042165974 209.909541298144 226.770415738813 232.909912455521 237.926094192876 254.806303041626 276.998046513358 407.924319379782 563.66596457733 438.820852170619 267.835570871369 184.19597510066 168.566514419909 319.380832495826 561.256573113025 700.578205945103 700.045640523948 623.577257145564 484.060899071026 431.763805796626 413.197331201114 380.049543586995 381.318352026351 403.114992361231 417.446546553491 602.02128637823 696.699252559673 827.23960035145 852.750097535813 746.375341118381 415.012843350701 86.691964683591 51.4865622296099 58.24280852567 43.8864141206066 40.1469958162725 41.6781619985972 24.728586057898 16.2869756641671 13.8884685836517 10.7726034648616 6.69025711209456 4.05358113187955 4.27258910663038 5 5 5 -9999 5 4.96463768051732 4.9856083991288 3.3943324440876 3 2.10498069941003 3.98288118971491 3 3.15997549850423 4 -9999 6.25147893833412 5.44568887494259 7.03423443810468 9.17709112632365 -9999 -9999 9.60566119098135 10.8742589396003 -9999 -9999 8.82291205614168 6.84002768396144 6 -9999 -9999 -9999 -9999 -9999 -9999 -9999 -9999 -9999 -9999 -9999 -9999 -9999 -9999 -9999 -9999 -9999 5 5.52547000543724 20.3648550516192 46.4196244154824 58.0668095370426 155.120338823513 197.231604857046 182.981671025372 508.309628722638 531 -9999 -9999 -9999 -9999 -9999 -9999 -9999 -9999 -9999 -9999
-9999 -9999 -9999 -9999 -9999 -9999 -9999 -9999 -9999 -9999 -9999 -9999 -9999 -9999 -9999 -9999 -9999 -9999 -9999 -9999 -9999 -9999 -9999 -9999 -9999 -9999 -9999 -9999 -9999 -9999 -9999 -9999 -9999 -9999 15 12.6898880888834 26.2204086401665 148.643887512286 104.260388411494 57.6935432476838 88.5082513385831 114.656522128844 79.4839171917618 55.7323534145138 59.302114871737 64.8400685914648 73.8638979211731 85.5252985772999 98.505363186015 109.162714191764 118.540409955977 132.967677087962 147.022611504689 166.59394930633 172.725160040151 155.017613094476 130.784438753022 105.388516428883 82.35895226505 61.2808241567518 40.841466808767 25.9798065870339 18.6539355319294 15.8928466863296 15.4574570507524 8.80068386808909 10.0757850125558 -9999 -9999 7.82282294710572 6.16001687055686 7.23144521466648 8.90862067632802 12.4972076115426 16.5600389695157 17.0778249764155 21.3417442896194 47.2784251898847 115.220917935615 175.641855020695 144.829648486401 343.394631545732 354.352184108479 277.324786607976 411.132729219887 562.57790947921 543.451935760389 489.196089500495 515.006082787027 588.448559131573 559.595692169463 517.231928415662 544.170961327767 540.06486094005 504.430394266931 488.526366514939 391.551739138079 372.933854859348 363.369727001819 324.244039604387 351.360407225415 345.787383733169 309.71266782992 279.626698238274 275.200541196761 274.360520772757 272.086275669761 295.234178149951 326.682712771547 370.095452795022 355.297712272372 328.002278319349 311.275095914298 298.550924120496 305.070209927326 317.023872467098 329.489111239499 365.909088730694 441.439438710309 430.656444996985 404.82388043332 405.054610741916 404.063956812105 446.078133698136 471.924050066536 493.81770286106 550.696821961242 586.782866666539 602.32058488977 664.046918860565 690.369604561437 706.697741036992 724.730424473366 748.17961059742 751.771623339446 714.669708443762 629.576814251297 535.756308411471 496.809672563729 443.809609174911 524.928522215006 535.016503783003 600.968496611677 576.23734951611 525.383230689108 497.283509628313 456.950178110596 422.97959638953 417.123001545849 429.438003108605 371.034072631253 337.188511365822 317.878530047231 304.380963279768 309.274936958324 312.503958817842 387.315155596161 499.302751011617 556.163739489918 578.303864400681 520.792325336486 560.082071708096 626.509867273247 553.611941755095 416.814657002395 351.177547491165 323.562833753205 298.057124136006 292.559919568427 286.265305743363 277.623640946782 264.335424719861 256.718627598786 255.254379163277 256.846493571975 258.122482404549 251.392958125963 245.262212294525 247.325609093476 239.120397266736 241.418496680268 236.738834017387 235.784949953555 230.912113110092 227.709276596033 221.909984669234 218.346384962438 218.323117698006 217.006362860773 217.277349304138 218.365529742089 213.983882558976 211.344950294347 211.952415003011 245.456605836113 240.342851286301 211.540042220461 205.234560694388 211.832082895916 219.572521569425 228.789911412366 238.520597037651 255.86794360394 306.952237798481 415.630218790398 402.163883241492 299.092418976772 193.196333967761 155.392861501292 237.343446203523 588.37544975021 763.717491778997 704.674604705299 595.407569998387 496.376281365611 444.667590671506 424.89212296615 376.495828125568 361.669860780303 383.95113718258 396.790398651104 512.895619255515 766.807802990987 857.092195487445 900.639185927189 601.111796530991 227.892115249496 53.1454794274288 39.246224065564 46.8525709358134 43.864310150983 29.6026640166807 21.2663763309468 13.2004727608449 9.7514314869181 9.49996209598064 7.84502736117752 6.02538950793375 4.98000114892003 4.87499052399516 4.9128478148132 5 -9999 4.69391525033373 4.36001594866193 4 3.26859456615341 -9999 3.17215998873744 3.00678920636549 -9999 3.46679565617526 3.28498497450907 4.32748564550802 -9999 -9999 5 8 9.17709112632365 -9999 8 -9999 -9999 -9999 -9999 -9999 -9999 -9999 -9999 -9999 -9999 -9999 -9999 -9999 -9999 -9999 -9999 -9999 -9999 -9999 -9999 -9999 -9999 -9999 -9999 -9999 4.29429190711646 6.06742954779929 30.2796034447052 50.2153014644168 72.9983872636746 289.834013542875 192.334076729077 329.381930283866 -9999 -9999 -9999 -9999 -9999 -9999 -9999 -9999 -9999 -9999 -9999
-9999 -9999 -9999 -9999 -9999 -9999 -9999 -9999 -9999 -9999 -9999 -9999 -9999 -9999 -9999 -9999 -9999 -9999 -9999 -9999 -9999 -9999 -9999 -9999 -9999 -9999 -9999 -9999 -9999 -9999 -9999 -9999 -9999 -9999 -9999 8 16.0850683955481 47.1113855953968 53.4687323576772 35.6938226673473 51.8492386790225 55.9505759161265 38.8754948958411 38.5425584317493 50.0872119206376 60.3149311085206 77.2961610448739 96.6423488977864 105.779523808965 119.33345911014 140.949083896886 155.869289398284 165.888973589449 161.207189315011 147.154622771423 138.048503535177 120.021088659398 107.424762518086 88.8571890660935 82.4816781868272 76.8787161760787 69.1113125016988 64.804173663941 61.9896524473632 53.9718670298955 26.4745821905785 16.540975279679 -9999 -9999 7.82282294710572 6.12858350532063 6.98954280108772 8.51574503606777 12.1043319712823 15.482707140598 20.3855806517572 39.0290694111681 83.691770488996 150.496253391055 175.237889853374 177.281038195384 246.748698745341 342.680576261537 415.932761594339 445.060560513815 648.75406747093 709.915229729926 639.873723018896 542.231797810001 419.913180534736 284.753207397872 237.016415213468 243.708084372404 278.589812750234 369.323482391938 491.527203604684 459.021958353138 421.372299059592 403.849344485738 442.4619842916 519.200124739445 502.948377607873 403.926006805811 327.543554917499 332.06546617615 346.33849609032 349.835182008929 343.06611933882 369.156551143163 394.339742332337 370.207584453178 355.974271353466 337.335166566216 321.862777676894 322.323897499616 342.280439712993 369.683704111465 399.289669992475 397.91176677149 376.541360071846 387.630155572089 418.655678133592 462.909955281047 513.298003149727 599.89424424273 649.083341165586 712.291212833509 693.312824652498 640.489694805284 643.819213024201 647.770159919727 663.984189710749 689.216458551923 697.691989337985 681.010686899737 608.757779684464 536.263905170533 494.52169531033 457.754822226335 390.486735361034 385.621996701744 440.032243039383 525.560715300178 524.483956616015 488.53545723581 453.534750968208 401.712872647809 379.871951620552 360.299598182506 339.848382911392 338.208042745014 328.366417486373 308.19965801238 293.639786935423 298.602742877548 292.712089258968 298.646670356764 341.721251375505 501.668105770261 571.451748801618 501.795414697868 574.606307627306 620.482716127158 486.480964659945 389.487491879267 329.944391546833 307.013001138291 292.470089014267 281.650006447551 276.905940264494 274.924260000835 264.83239957536 262.195151887368 266.269744018229 265.404856111014 258.75551389057 255.488826396101 249.443208247142 242.70537753814 237.251723171678 234.121894122271 233.100736608867 234.488240073634 231.327987906284 227.376155688229 219.511752436611 216.739374632064 212.207940693835 215.728934102054 210.593236241391 202.673457823162 203.342586328375 215.671477660628 218.118670165477 197.064579338339 204.732064641247 203.186337824996 203.296668710874 215.145689080619 235.747996380479 238.750967301785 243.244333932074 296.341315932103 366.431597291894 442.780297826515 391.54944273765 325.984411473694 202.042719329603 166.757442377518 266.550879030796 454.699806964428 648.160802466481 579.207375405942 577.966367090659 550.487504226138 479.442935113565 434.831768796587 381.048587051091 351.9238578726 357.826339200095 370.513162949689 499.734949512021 792.21229507846 901.476467587616 850.613156954228 400.642269740742 78.8581860352156 47.1152407251099 33.1463709444315 28.8067056577884 26.6248595014655 15.7659086696403 7.66751250385393 7.17479322232654 5.83389470118461 5.7928943585897 7.19307441319788 6.8228993262797 4.84002131903025 4 4 -9999 -9999 4 3.88438676736863 3.60321809584512 3 -9999 4 4 4 -9999 4.19140073670463 5.15098135371733 5 -9999 -9999 -9999 -9999 -9999 -9999 -9999 -9999 -9999 -9999 -9999 -9999 -9999 -9999 -9999 -9999 -9999 -9999 -9999 -9999 -9999 -9999 -9999 -9999 -9999 -9999 -9999 -9999 -9999 -9999 4 8.20393850750713 7.7487886714183 23.9975495340755 88.0807598548515 74.3146883769274 157.27182736126 353.843410855766 229.466289782217 -9999 -9999 -9999 -9999 -9999 -9999 -9999 -9999 -9999 -9999 -9999
-9999 -9999 -9999 -9999 -9999 -9999 -9999 -9999 -9999 -9999 -9999 -9999 -9999 -9999 -9999 -9999 -9999 -9999 -9999 -9999 -9999 -9999 -9999 -9999 -9999 -9999 -9999 -9999 -9999 -9999 -9999 -9999 -9999 -9999 -9999 -9999 7 4.59135545517958 7.84067098441159 13.9996453771022 15.9475017594706 21.5631739439569 28.3546547641364 46.0718341037832 61.8185556453343 63.6880189316885 113.62010075931 141.148218265327 129.761300641384 141.501217676604 161.058258513934 163.647355405025 159.937444250256 140.281146048847 123.407350993355 119.590089459065 102.492637393119 99.1377118083076 102.467393920686 102.171085412163 93.8405574574499 90.1691040288965 93.3557475132899 104.016398627871 101.134239886143 55.7148140980431 19.6721472436117 -9999 -9999 -9999 5.20287997588909 6.45385518991937 7.9800853333497 11.9697235285622 20.3166080933281 32.5034829671615 48.0701766074096 74.4664726032905 118.731541421107 160.156859002925 191.29115497457 224.135300802232 318.776048556735 390.049291038151 397.664475747291 355.620744515272 290.748715849067 241.904825564819 172.876165981965 152.06562012198 153.389528798266 171.681562778778 200.101669768412 257.868346879375 323.008926662001 438.874553299384 486.966937588278 468.523318779078 437.244701831765 471.006649761667 549.759423368009 567.376640612314 483.545251132457 426.358051737215 419.449056550463 492.156489831817 505.925891567287 457.696761678072 466.129416315386 465.13942493395 416.410291002263 378.986173238989 360.831270901252 348.873945385952 345.791038004784 355.246625468646 351.253017238495 331.664419410066 344.454464681276 399.571545501905 449.617230541166 492.342500583784 571.231050892128 668.637708713954 754.452957472261 795.671994109766 764.522859388898 709.363809340592 694.3670200889 656.708946918699 634.385591351314 662.920212512823 666.746366707344 611.167649551447 550.833521399067 502.424379901498 483.358834076058 460.595716999835 402.126026378602 369.804977392275 361.964788995818 428.70787429665 489.697694220523 466.519720935638 444.601823322862 424.46673363809 381.153794133428 359.547044319841 339.119123659416 320.676303154805 316.647979332151 318.814197800178 288.825145851823 284.319196991632 288.927908501871 292.216341007139 296.3416186924 320.395296295744 423.618497122654 491.549240412881 504.063095590323 610.188236017253 576.700936087806 434.641969269178 356.429265693161 318.12508182418 298.206057018727 285.814250669098 278.124990849351 272.598188398665 269.737144016408 265.09410023398 271.401680321766 278.1297019826 273.061081794501 268.360782608538 260.933267854781 255.238117335142 253.114888000731 250.513939287176 266.357043475114 271.312731795844 277.881289467161 266.198580971112 265.707793178538 244.056084912223 243.118214610531 233.740308491119 248.717642274014 233.248762618476 210.305223348484 207.673791478537 268.599247992495 291.291004038961 257.969806397422 194.221611007246 190.02912647897 194.189378179726 207.903842067309 245.031648024338 271.348162507242 275.249615916594 316.268249701128 376.914938823834 394.536795676045 390.39723944253 329.107620195224 241.630786730035 192.389369820695 237.244354673036 377.728957888402 557.846451019316 556.911948176137 604.98880447762 629.030402759446 575.596022766792 465.278018772083 399.155680300354 346.648393650265 317.179384120323 316.579302730784 346.034081120825 560.196482397195 782.892732007255 658.857507530208 225.355874101282 54.559475580012 41.8913691207367 30.3837245296805 21.2068823121919 17.9460883232829 10.2373522847141 3.92974722791768 4.65848722798847 4.12573469546873 4.945693648641 8 -9999 -9999 -9999 -9999 -9999 -9999 -9999 3 -9999 -9999 -9999 4 -9999 -9999 -9999 -9999 6 -9999 -9999 -9999 -9999 -9999 -9999 -9999 -9999 -9999 -9999 -9999 -9999 -9999 -9999 -9999 -9999 -9999 -9999 -9999 -9999 -9999 -9999 -9999 -9999 -9999 -9999 -9999 -9999 -9999 -9999 -9999 -9999 19.276058200427 10.7597197917524 23.7297364880261 78.5657526276858 142.382232776613 124.611537257013 312.476515801823 258.844099451623 -9999 -9999 -9999 -9999 -9999 -9999 -9999 -9999 -9999 -9999 -9999
-9999 -9999 -9999 -9999 -9999 -9999 -9999 -9999 -9999 -9999 -9999 -9999 -9999 -9999 -9999 -9999 -9999 -9999 -9999 -9999 -9999 -9999 -9999 -9999 -9999 -9999 -9999 -9999 -9999 -9999 -9999 -9999 -9999 -9999 -9999 -9999 -9999 4 4 6.19544705208225 9.45353284293147 18.049378072601 30.5181039737959 40.8753065564051 42.9197816527999 69.2772262051609 196.966486152831 221.74998294194 140.520531702099 150.085327518773 174.713021704679 160.985474867517 143.222310034948 129.722271687457 112.569277786993 103.956768299262 89.6998576460857 87.5258973504871 90.5068042828472 89.2988942682718 89.3751488807875 79.5723131702353 71.388364631509 91.693562033408 94.9376725550476 55.9143561259097 43.924202494223 -9999 -9999 -9999 5.32003374111373 7.61580755367209 10.6720895031737 16.1214138032107 26.6561725600094 37.2480573040595 49.0468497649123 75.8759784794867 121.307268950177 182.541710025117 217.024726565776 239.266925060999 230.264121620339 182.00404518011 137.12713209922 121.092865577158 117.536791000697 118.518039061658 122.227562734541 124.058051833598 129.532848687229 152.659059163877 183.83236809334 246.961177724966 292.712031464627 301.813709097813 305.695787246476 329.525006138637 370.824082558724 425.890436001621 522.280026803322 582.715975591675 584.893351860223 604.045955180708 586.263407257878 684.409828342749 660.19272993777 612.081138720906 591.789058276607 526.952564645871 452.059921123413 379.50813930421 333.288632622613 325.82024322345 331.056699787772 329.859529510697 321.400834010687 327.159554311291 349.76205558342 390.597757702602 441.068676977519 508.348134335545 635.390469506857 786.801436643303 891.790787280112 871.685259630261 745.095072909718 692.583014980388 697.989345392451 617.064398670551 566.602227639639 594.346338919311 553.540945782435 462.088998965372 435.877419419829 437.354485038858 453.386250512958 476.988821636102 443.110455315115 401.851184312154 343.195066051874 353.311115143179 394.906304633576 370.33686650294 371.797503675642 379.085110682609 371.616177288402 354.131531967729 332.471129341178 320.068023712319 303.355669140371 282.013776026109 278.243735253764 290.387792045262 303.59953514322 304.714268690819 300.781820050421 301.974960727283 317.878017394097 368.376164757662 507.429860052214 602.797632875551 479.025208731438 374.023967887798 327.031728154416 313.703694688097 302.012663396322 285.322849208499 275.915705545594 281.385923037947 274.456072921836 266.967556177155 275.74614527713 288.312279066037 286.352491226068 274.461938547136 265.882325827272 259.210246270363 259.00824953748 293.696379971139 331.377692814935 337.432097680723 303.178338418408 309.170817828893 320.393139311949 286.173143321262 294.779844034688 279.317334821216 265.370354964995 249.499320137061 235.085054382722 227.136732274184 260.889210337493 296.718194579055 317.696905642617 192.599715640206 178.517898665018 171.29859023228 171.392368032461 203.919405972084 282.159850055757 349.050424671271 361.125024077143 335.739165376111 328.861302753732 327.648721013054 237.92369441146 167.690185658995 163.888177423342 167.659931658379 272.21350694547 289.306387526641 397.012204391854 548.440923995081 655.07197919142 631.845723839742 504.719049690847 420.439339538885 343.477619178978 287.238769575743 273.072911675675 312.515208963461 345.450874435125 499.969647179876 306.60518210818 90.1536779919485 76.6927472533881 83.9671740796377 59.712977088389 26.9602037773427 11.8980200284914 6.59008734453888 4.35972296517139 -9999 -9999 -9999 -9999 -9999 -9999 -9999 -9999 -9999 -9999 -9999 -9999 -9999 -9999 -9999 -9999 -9999 -9999 -9999 -9999 -9999 -9999 -9999 -9999 -9999 -9999 -9999 -9999 -9999 -9999 -9999 -9999 -9999 -9999 -9999 -9999 -9999 -9999 -9999 -9999 -9999 -9999 -9999 -9999 -9999 -9999 -9999 -9999 -9999 -9999 -9999 -9999 -9999 9.37832592475538 6.80263352656351 22.8273960995577 42.8261021656187 136.691859075049 179.300539065183 198.507186963359 292.728112779494 -9999 -9999 -9999 -9999 -9999 -9999 -9999 -9999 -9999 -9999 -9999
-9999 -9999 -9999 -9999 -9999 -9999 -9999 -9999 -9999 -9999 -9999 -9999 -9999 -9999 -9999 -9999 -9999 -9999 -9999 -9999 -9999 -9999 -9999 -9999 -9999 -9999 -9999 -9999 -9999 -9999 -9999 -9999 -9999 -9999 -9999 -9999 -9999 -9999 4 5.33417449568482 6.91435930286649 15.9552965638342 23.5264442946088 29.3195467645408 37.3639342957312 61.6390904051667 125.053365968398 136.135717704044 110.783255719812 139.047171937062 180.658602002809 188.252437359896 169.519096021301 151.494125439793 125.150863612332 106.921968055822 93.2765675288304 90.4505887434848 86.6780147099492 87.1380158423226 104.198738270053 102.626315941459 60.8304873295145 43.8919333655774 46.9815122732098 35.9990529949599 -9999 -9999 -9999 -9999 6.22573945608107 7.87361328183898 10.7466141796192 16.8826941404796 24.8813505789461 33.9406727654525 54.5566392667616 85.5233190465185 115.693920087247 182.806691557463 239.450689912734 258.671998962861 192.128789228662 114.420361589114 114.60332077938 128.338025598992 139.000691496129 148.314083457412 162.865852281833 163.413668395503 149.648158848527 141.969006819309 145.915268064741 173.849760679238 191.209294397363 206.852786337664 223.946159463417 281.78514712466 301.72625974234 334.329507322382 390.454663069958 440.812060532078 524.385417967622 631.96269612932 700.59942232348 717.055726131172 609.831123245675 551.578585360803 522.114567710287 510.481009594403 409.662662306611 319.884634310005 292.696649951734 309.996450081239 304.854422719068 310.343344398027 339.775130574998 395.604164733875 434.627352118819 486.422916502534 549.922251677755 629.673370815314 740.30180662654 793.714967910425 755.006469965147 720.994840144831 593.610547451932 571.023688749578 566.181813727507 556.533240811222 491.054367195561 435.594621056867 402.043328755747 386.805021352103 385.650621978416 394.260058509025 409.919525789403 444.637901847934 438.981451669106 403.9722297467 344.502028392423 321.088727534349 330.874231407236 330.265126524792 331.617473792196 333.872393545395 342.563335620871 334.490900550262 312.132868927607 290.132242972642 279.438143753889 271.407141402348 285.308132798123 314.985845683193 330.185911275162 314.542024421416 312.564533247744 306.274170568039 313.567309614699 391.346023949796 545.905735769661 536.014741961307 397.607017994161 335.650715602522 314.766630083725 300.29796359675 293.987836791829 285.482845348044 280.61784450956 286.866791515296 274.506507023865 269.50873262987 276.37051078841 288.787978325046 291.182757492183 279.231530533403 267.187893197491 256.449902109827 292.480156542511 332.042544760483 340.742094232467 363.425358592844 286.852812090264 302.204007893345 317.687771294666 300.04699992422 294.468360931459 285.779106537594 288.230486146625 279.461836744166 254.082508273161 217.834021518679 193.177081949939 192.791232768616 183.338619180375 170.888029981977 166.990729105806 161.317197786787 187.474895124474 195.454851579581 261.510849639552 395.021680550896 468.023075546065 397.165355787755 266.058840074131 216.180698876474 200.726631576291 157.732257514393 126.717432352491 135.481916623651 161.758939249368 228.641073701718 241.085422542436 305.267694093282 509.526085310634 554.755171107685 485.897745110933 416.135600172559 336.78323668036 257.43099402371 201.93716597743 260.88672881965 253.624098911877 242.872443049379 184.486087638947 127.942708237636 147.64256875743 157.350983195285 81.5690474696797 21.9377837003798 12.1902252458316 7.70009863898751 -9999 -9999 -9999 -9999 -9999 -9999 -9999 -9999 -9999 -9999 -9999 -9999 -9999 -9999 -9999 -9999 -9999 -9999 -9999 -9999 -9999 -9999 -9999 -9999 -9999 -9999 -9999 -9999 -9999 -9999 -9999 -9999 -9999 -9999 -9999 -9999 -9999 -9999 -9999 -9999 -9999 -9999 -9999 -9999 -9999 -9999 -9999 -9999 -9999 -9999 -9999 -9999 -9999 -9999 7 10.9481162340331 20.5182218597565 34.8408410786173 75.5524699040382 -9999 213.041602996945 295.795913482046 268.600133002146 -9999 -9999 -9999 -9999 -9999 -9999 -9999 -9999 -9999 -9999
-9999 -9999 -9999 -9999 -9999 -9999 -9999 -9999 -9999 -9999 -9999 -9999 -9999 -9999 -9999 -9999 -9999 -9999 -9999 -9999 -9999 -9999 -9999 -9999 -9999 -9999 -9999 -9999 -9999 -9999 -9999 -9999 -9999 -9999 -9999 -9999 -9999 -9999 -9999 6 5.54315331905196 9.86311725967157 20.1839071286205 33.8283254371856 53.7785224524684 75.7226011423747 98.7539310131674 114.23161441298 127.969308004174 169.063036974643 228.940757323758 238.815305046799 221.889904581837 202.891300280029 165.715739764479 148.427226660513 138.761341001672 141.504381266114 140.328596762032 131.397802415437 124.332585926583 104.177633548818 64.3731021826245 31.4727451933256 25.796303979702 -9999 -9999 -9999 -9999 6 6.24288141549354 8.20392240711371 12.1425498393032 18.043005382329 24.9006044135041 33.5306328306123 52.2806250200413 68.8759359943722 82.5572811736322 124.797428425791 173.980583524191 215.379669028063 145.869406223407 112.043159488725 139.462594080839 167.623681019632 195.589983160709 224.682024112653 259.955102758609 265.17516598803 221.704554122988 177.873632142436 158.897598114739 150.916873704485 148.202045533497 157.761095957214 191.638413965441 269.446206107108 247.274266087491 283.607321230316 293.510735785106 337.262115936696 448.078528753642 557.603664888063 630.706236450762 592.578158664807 481.483143990477 404.450080711506 362.081780116752 352.794630534417 279.772674418977 260.757847974801 292.437498134226 344.780973143914 365.543724098138 401.725161557551 448.091371834926 531.531978658504 588.748705892369 661.211518502253 699.757786154153 760.01958981989 714.475137679211 626.752068501705 484.709401453623 487.352531912868 441.530548305662 431.884490404511 423.450490125858 413.141601090177 372.075843468624 353.6054846221 365.388654805162 374.905193014021 390.029942750402 410.049593632145 417.535252883872 429.925868682346 439.927267901831 383.5442777134 337.542099151815 313.721522513013 302.80126829038 299.543026259843 302.20809213808 301.823491006399 296.322388156511 287.580913476466 276.232940588847 268.404086876144 262.233967210487 277.324887988942 301.673041680892 343.000645089681 337.002113929021 324.811939554047 327.031267128527 315.572422208531 324.222948030279 400.820316768175 526.733407556555 489.031200386196 380.798166615155 335.233010648413 317.71090177819 301.744899410735 290.345047956003 283.083145322146 289.373664261178 287.176313272666 277.208297474286 276.439862926709 278.984056662551 283.054777001501 284.383419545745 274.598579006842 263.46514596024 272.139773790142 323.850262475988 338.847012761094 316.250589120249 320.961333303022 285.166318192567 287.657166478501 284.576780305402 271.510522294637 257.568494391507 257.679204794857 289.441694864568 278.894930776951 238.704068245547 211.301171153672 189.895849933847 173.919433621649 165.53123534674 157.237300857247 149.3312528933 169.086621207698 214.944509601297 227.647438656905 267.371510059435 298.122442127469 367.441106411015 377.955091795489 267.791637530131 215.083972754051 228.565259502164 180.698774353995 135.528016959866 130.453036290865 153.29056831356 203.87059773029 221.039416642899 201.561124673322 333.251598518205 446.933845960565 462.842010226913 388.505209909658 318.945227292306 244.241070522768 134.657031395364 160.8563151181 171.886127587299 150.339872691466 136.607267968844 102.932562069486 107.634889765018 90.1267942788842 35.8434437185517 10.6996393384808 7.5073438557319 -9999 -9999 -9999 -9999 -9999 -9999 -9999 -9999 -9999 -9999 -9999 -9999 -9999 -9999 -9999 -9999 -9999 -9999 -9999 -9999 -9999 -9999 -9999 -9999 -9999 -9999 -9999 -9999 -9999 -9999 -9999 -9999 -9999 -9999 -9999 -9999 -9999 -9999 -9999 -9999 -9999 -9999 -9999 -9999 -9999 -9999 -9999 -9999 -9999 -9999 -9999 -9999 -9999 -9999 -9999 -9999 23 22.0726152080302 46.834714832612 -9999 -9999 264.479059360867 291.941508583459 291.365057576945 -9999 -9999 -9999 -9999 -9999 -9999 -9999 -9999 -9999 -9999
-9999 -9999 -9999 -9999 -9999 -9999 -9999 -9999 -9999 -9999 -9999 -9999 -9999 -9999 -9999 -9999 -9999 -9999 -9999 -9999 -9999 -9999 -9999 -9999 -9999 -9999 -9999 -9999 -9999 -9999 -9999 -9999 -9999 -9999 -9999 -9999 -9999 -9999 -9999 -9999 6.06284224259761 11.1462886979815 28.7061033832904 45.0335164959397 67.1580339678704 102.72789682376 148.871925005451 172.363137454493 197.448676999082 248.030781134956 305.484144800543 310.01178568782 284.420730851345 268.069046210897 239.573656690846 189.170053462638 153.150347550324 152.148181913309 148.786811079122 125.152953951216 105.243523671888 72.7338404321929 45.0789017860832 25.254566209823 19.4280552159568 -9999 -9999 -9999 -9999 6.50474653256334 6.62501434559729 7.79765752302052 12.0959972063249 17.8044602810369 23.4753983804096 29.3148244324039 37.7891777790815 47.7682981348423 61.0912653010893 84.2300190289503 100.987998594433 121.560958651731 101.638284488946 121.463428919623 153.548351743248 193.209922207666 292.235316297342 400.964315723669 416.262413006041 378.400475077728 302.220911234662 249.279810441967 218.096656896295 186.010258032468 166.035876689986 157.146518057396 162.497878820334 201.421354519623 193.603974928129 200.34214141544 206.181922283069 237.681033259588 305.5729115809 351.054568987928 365.975410669088 354.414784916216 335.671383208094 296.77374291628 260.633624568762 249.363931225035 248.403928405195 268.360859327276 309.137931419009 384.116737291748 482.886447633946 553.95907068491 534.476863767421 537.390561154628 573.560269674472 605.338550387561 587.613647334142 557.779206927592 471.544380627308 411.234158796289 372.198211656292 366.58163254941 371.529050323556 376.077755621434 375.289859929084 364.874770464789 345.329015271281 339.247450771242 363.157441406858 400.766752837863 418.591883012309 444.15600066689 461.457587904564 448.381097127376 458.753979781984 383.718474145577 344.291531304469 327.809835679344 308.257773698896 291.974297850592 285.843489192515 282.125899179831 278.50315573967 274.410673305773 267.041419229641 259.100781897051 269.778171662184 306.678428836597 322.783414978465 334.511308517084 310.094652121108 322.429263153701 342.693527583385 332.663892835083 353.30213415158 410.166197327329 453.732934885691 420.02105377204 361.628538954123 332.547928130989 321.345171018162 310.222696177678 290.938794308355 288.579997565499 299.168669818493 289.594679493289 281.314607376531 286.866777296162 293.014066818233 291.531289335312 280.999877318011 269.774366383585 268.850072197624 293.770698089822 322.420828214345 335.052029646783 308.422354867653 298.428001689702 285.118564983252 289.986254330054 272.269447090802 254.561955523475 248.052346037533 270.106188965902 304.450549042426 262.359233965753 219.01615017839 206.176730806466 189.50576999051 167.901675516019 155.943445902689 150.448174371718 147.893610783183 204.638532116637 216.85026018758 247.331479614738 302.722957785245 297.86973633676 260.859277593775 248.703954146766 224.644118654352 195.489718475179 186.980515156763 164.187628077159 146.078570282805 119.060026148431 121.586132394304 130.053892941526 159.848055290941 186.837228617392 229.252538080366 299.490640993957 492.838658655406 429.99667677237 284.413407036986 191.026729827059 100.103818679788 71.0584698455365 99.0077210228614 101.465997531213 63.4001421683343 30.8820735134187 20.8979142716089 13.9793692548831 9.28203824686513 7.32764263634241 -9999 -9999 -9999 -9999 -9999 -9999 -9999 -9999 -9999 -9999 -9999 -9999 -9999 -9999 -9999 -9999 -9999 -9999 -9999 -9999 -9999 -9999 -9999 -9999 -9999 -9999 -9999 -9999 -9999 -9999 -9999 -9999 -9999 -9999 -9999 -9999 -9999 -9999 -9999 -9999 -9999 -9999 -9999 -9999 -9999 -9999 -9999 -9999 -9999 -9999 -9999 -9999 -9999 -9999 -9999 -9999 -9999 -9999 20.9310664127798 20.6162104589245 -9999 -9999 -9999 -9999 -9999 -9999 -9999 -9999 -9999 -9999 -9999 -9999 -9999 -9999 -9999
-9999 -9999 -9999 -9999 -9999 -9999 -9999 -9999 -9999 -9999 -9999 -9999 -9999 -9999 -9999 -9999 -9999 -9999 -9999 -9999 -9999 -9999 -9999 -9999 -9999 -9999 -9999 -9999 -9999 -9999 -9999 -9999 -9999 -9999 -9999 -9999 -9999 -9999 -9999 -9999 -9999 12.0188328681292 24.8202473430511 40.2981109804002 59.8819769899987 98.886375267167 139.455095680591 169.259801276685 224.132704984781 261.632573803884 279.327489310287 298.778687308842 272.773028895556 284.695571278884 255.723222561858 177.23173878127 117.789270922503 97.1442493997264 91.1884250402953 68.3738848609989 47.032154046832 34.2803527506304 24.5618114909716 17.8924327728025 -9999 -9999 -9999 -9999 -9999 6.48892573568404 6.37499211511809 6.92467267503278 10.2643520241162 15.7618540069202 21.7993578273262 28.1632953012983 34.8993930867343 47.1952502516522 68.308258429611 94.8236793476671 117.579902432333 148.261006037383 161.839316973187 161.765792865535 196.881691965705 308.018298008595 465.068119344912 548.089970539634 510.309419590719 435.860288932967 360.095258961671 300.909634966269 255.449634193511 229.420103180928 207.155825036482 178.256300998277 172.78086419096 167.674013703151 171.290018425058 174.819278295616 177.730647653989 181.511044369482 190.124230911669 200.852300350083 212.194715284173 222.402193187945 228.08402011239 232.838034415718 231.127023452177 249.901051075404 305.744789609612 376.298234456466 447.256749549279 474.784996572784 479.571987576202 463.552920374883 414.333741675771 379.968400781842 386.464954028623 384.846059054084 369.381858178078 357.824633864941 346.944540702572 340.186878761349 337.751939100658 338.59451625678 346.739884161305 350.161953678108 352.145616380209 358.472132240915 347.477179310191 327.092415909689 342.977788199761 417.882777770494 446.244539433485 464.943119561288 490.389403103792 475.524883341702 449.078372843569 391.721789285893 343.344896298059 331.454180712848 315.239270421771 291.433193161411 278.825682452469 272.591036814743 267.079220372001 265.124913266299 258.816343490791 259.310028183175 276.939261273312 291.905283296627 285.753767302478 285.268944665311 280.769819874347 309.382270306749 348.721439590411 346.288248862449 372.539209243168 393.164062728556 376.256181123805 348.882401137005 328.754227481244 320.610668006223 313.832769701695 306.616349218966 291 292.317425051677 304.715070422468 296.513342134323 288.856504602054 292.474578574635 303.897150824922 300.389415379267 283.670854337993 275.635080829387 285.639324724922 310.474586865187 316.389982557927 330.330991357132 314.212336787143 303.601930268817 292.139946023583 294.270264975442 264.383740026964 246.060663396712 248.126506421265 291.413577417075 324.922978016976 246.581025402273 195.060039311359 189.322003679425 182.567871520429 167.675897231849 153.684433514465 143.203810808241 157.054392418549 204.584323773025 202.980404759355 214.713892176532 244.311753398379 257.749552933688 261.664674539262 280.969981370017 297.104167413758 227.066724140687 168.362100448078 143.467599095941 127.855814468184 105.006423157301 104.339811625893 117.934061514558 138.00312575589 153.329417081217 146.317023047287 186.11431334005 394.889677069442 444.086454558938 263.351946979379 136.140255060619 76.7064347262728 48.1715062457111 46.4718875994947 43.6792552990259 30.37504995822 23.5629610937101 16.2551222535364 9.73757739720014 5.83004648107662 4.43963664057441 -9999 -9999 -9999 -9999 -9999 -9999 -9999 -9999 -9999 -9999 -9999 -9999 -9999 -9999 -9999 -9999 -9999 -9999 -9999 -9999 -9999 -9999 -9999 -9999 -9999 -9999 -9999 -9999 -9999 -9999 -9999 -9999 -9999 -9999 -9999 -9999 -9999 -9999 -9999 -9999 -9999 -9999 -9999 -9999 -9999 -9999 -9999 -9999 -9999 -9999 -9999 -9999 -9999 -9999 -9999 -9999 -9999 -9999 23.6342789888942 10.2533939769397 -9999 -9999 -9999 -9999 -9999 -9999 -9999 -9999 -9999 -9999 -9999 -9999 -9999 -9999 -9999
-9999 -9999 -9999 -9999 -9999 -9999 -9999 -9999 -9999 -9999 -9999 -9999 -9999 -9999 -9999 -9999 -9999 -9999 -9999 -9999 -9999 -9999 -9999 -9999 -9999 -9999 -9999 -9999 -9999 -9999 -9999 -9999 -9999 -9999 -9999 -9999 -9999 -9999 -9999 -9999 -9999 -9999 18.3314521942722 22.5263118444417 40.8194834326013 73.8524200891812 95.7921249240845 124.418287293269 171.210054780852 190.351892206397 199.823339177375 205.808616247183 191.520155708916 229.635759183726 182.010056782244 120.160735917164 72.7890768982405 46.8193568580457 35.2608255817198 27.2835125470652 16.6440560402658 17.3265990762495 19.4684592939192 -9999 -9999 -9999 -9999 -9999 -9999 -9999 6 5.81814309923662 6.72862287785122 12.6071194099112 19.2815090239575 26.2272376797192 36.5966289477125 52.502084166442 72.1674374646014 98.1782349271189 133.982157291741 184.412784029792 274.34345008468 317.764181428963 312.276782950131 511.986801036713 580.537797550644 559.544331795729 524.30276211751 478.909280521872 409.329719623241 341.644309587414 303.522403707602 284.515262920163 239.578603350487 204.758834941835 205.639930531879 186.018033267166 186.275190557764 188.269890408173 188.907363249157 189.256354500758 194.924710260582 196.842606974227 198.416464337684 205.875842526231 214.922007942908 229.829097362096 233.849882879363 240.803693048664 282.582783713024 344.062177990515 387.739851456129 367.183742988079 339.258221523191 317.070534545918 303.774855621288 296.738486112369 291.236354116604 294.238706052836 302.335694591327 305.267435811106 309.340433406395 312.81427630277 314.849774982369 320.31583974323 328.480592388267 331.14832084015 341.989237624415 356.752759781219 341.832975557853 317.77841753865 316.535463261439 384.266266127471 434.18315839456 433.465951883038 461.118478434666 484.13631184232 410.67638526156 412.537333278433 360.230892773199 310.289559742736 302.693325557895 289.065184024818 278.559400855775 270.560864595398 265.519611574522 259.189270213049 254.313675281316 264.460841239502 271.425034480911 262.78113403884 252.750815190353 259.767183966743 276.651338236534 327.90186306831 351.978912956021 356.584854358458 367.935684931217 370.280785839201 349.962624259956 337.503923157942 322.061597514244 309.713627296024 303.465684650642 297.805751660521 294.517987518994 297.433423117651 306.617851116682 305.28834333697 294.116579905194 296.759385336497 307.697034180339 301.533054291824 285.597247068221 282.225366959753 296.935120678295 314.67755892026 336.665471177658 343.225499148454 328.777985135708 311.662800827737 297.130812394548 282.808805134508 266.417481124561 274.644292379601 233.342584887564 230.45320111882 236.07297635601 201.646472647163 175.059806553887 165.884686444045 165.619529804992 155.364976492447 153.297229823978 136.503042820243 151.588111992662 175.065703601505 174.498912983501 186.072091887242 181.454133905248 186.440987394617 221.225677309821 305.778927424989 365.316652759447 329.385663450036 251.968806744758 170.558675579348 142.170479200733 107.882962485814 109.298509821775 118.687946392428 136.579319596203 162.40980909548 142.382641626097 131.464342858892 184.30484782632 235.672126735932 219.624082610781 160.250998012367 72.9715971809848 48.7670293498028 30.8525877776485 27.1904864179225 23.0700380065346 18.0588100562726 12.6088567322945 6.97784052644274 4.19440221764514 3.40514557776119 -9999 -9999 -9999 -9999 -9999 -9999 -9999 -9999 -9999 -9999 -9999 -9999 -9999 -9999 -9999 -9999 -9999 -9999 -9999 -9999 -9999 -9999 -9999 -9999 -9999 -9999 -9999 -9999 -9999 -9999 -9999 -9999 -9999 -9999 -9999 -9999 -9999 -9999 -9999 -9999 -9999 -9999 -9999 -9999 -9999 -9999 -9999 -9999 -9999 -9999 -9999 -9999 -9999 -9999 -9999 -9999 -9999 -9999 -9999 26.1719970525144 22.2163391511417 -9999 -9999 -9999 -9999 -9999 -9999 -9999 -9999 -9999 -9999 -9999 -9999 -9999 -9999
-9999 -9999 -9999 -9999 -9999 -9999 -9999 -9999 -9999 -9999 -9999 -9999 -9999 -9999 -9999 -9999 -9999 -9999 -9999 -9999 -9999 -9999 -9999 -9999 -9999 -9999 -9999 -9999 -9999 -9999 -9999 -9999 -9999 -9999 -9999 -9999 -9999 -9999 -9999 -9999 -9999 -9999 -9999 14.0041107071848 19.2694303224896 36.9447519547854 53.9982623133348 77.5616497407569 100.497131569495 113.13825104056 132.794625190738 123.257571531611 111.806830941644 114.057220095759 93.9946385345419 58.5712343904431 31.3087416844311 16.8799876365025 11.5266297201597 16.502779658595 10.8798659937738 -9999 -9999 -9999 -9999 -9999 -9999 -9999 -9999 -9999 -9999 5.12399194726039 6.58496518829972 10.7578738075536 17.3975691600983 26.4143256593347 39.2279012950273 57.0306558186271 76.6292991822579 108.03033106066 166.133106884402 226.362753543393 322.341283460816 425.087127059076 475.553399175717 610.18919527711 585.616804331383 524.509604517084 482.774344058464 445.67665599286 408.939353241409 362.312028419035 332.91507783334 309.413124622705 264.740060998342 232.484165649134 241.515280555953 208.133579718635 214.998151567593 220.080888321896 214.098009977779 211.873678257191 216.961102074928 234.75526343806 229.866584745458 240.750260517666 253.277222135672 253.886018178557 278.732576492012 251.652214854908 239.514290696327 250.707746750423 262.434337589727 261.405523798423 261.002735792406 262.377992193244 265.139599333427 267.701711542762 267.287201412091 269.813821894537 277.262045718778 282.435649980451 288.221228409384 294.181547089108 300.656374410394 307.058053419518 313.552796347085 326.988686527121 359.931240930734 380.360139821901 354.629020000994 315.851702103803 296.472720508408 327.707950126538 373.987264954065 359.563782673741 381.871268799817 403.155284735983 352.167690437316 388.185396755769 335.426763963713 290.312369656504 290.148514184262 305.74909619533 297.775996309268 281.774296134447 268.173696879816 259.398227844804 250.394154309471 258.666954798921 268.706006456599 249.198514026747 244.679927560653 263.905982985636 308.710786583785 379.225818171778 340.224352743863 371.80840810903 377.062570268539 368.693094690993 348.218473783259 329.59570070699 315.53223654653 312.390159116096 310.494996227261 307.664357677768 302.883237332423 302.603626314982 315.676524796437 310.777815706466 298.698220251107 299.874392726481 302.435608937228 293.29084669821 288.425032536658 291.057538411254 309.945446547205 325.30354961881 357.243421766376 359.626555839981 328.882543996383 312.892180093692 308.029617915988 277.501031202974 271.339924307393 301.17643034992 257.879789433215 210.406700100935 193.26178594559 183.626156084369 169.904032825936 168.021542294888 153.686351317387 142.603098500998 138.997640151202 129.421986946385 138.984814644004 143.541974291421 135.191101984177 143.68727195374 148.055862112493 142.469565807455 161.144554440531 201.978670730499 259.040421468384 306.926583040564 282.651895914902 209.504523874955 159.639161769199 129.460909095989 112.75249067821 93.2029549762614 100.233883134065 118.004276683054 103.561780763269 86.4846626218683 78.1946884985889 77.3874649093409 90.5637643037255 95.8989045370263 67.8985648860928 40.1461203023643 27.5358568722368 18.0351373016887 14.2893095246304 9.16357801162762 5.66742150304591 4.14837817361715 2.78644018699358 1.59496913897284 -9999 -9999 -9999 -9999 -9999 -9999 -9999 -9999 -9999 -9999 -9999 -9999 -9999 -9999 -9999 -9999 -9999 -9999 -9999 -9999 -9999 -9999 -9999 -9999 -9999 -9999 -9999 -9999 -9999 -9999 -9999 -9999 -9999 -9999 -9999 -9999 -9999 -9999 -9999 -9999 -9999 -9999 -9999 -9999 -9999 -9999 -9999 -9999 -9999 -9999 -9999 -9999 -9999 -9999 -9999 -9999 -9999 -9999 -9999 47.4407707171075 44.5389324865404 -9999 -9999 -9999 -9999 -9999 -9999 -9999 -9999 -9999 -9999 -9999 -9999 -9999 -9999
-9999 -9999 -9999 -9999 -9999 -9999 -9999 -9999 -9999 -9999 -9999 -9999 -9999 -9999 -9999 -9999 -9999 -9999 -9999 -9999 -9999 -9999 -9999 -9999 -9999 -9999 -9999 -9999 -9999 -9999 -9999 -9999 -9999 -9999 -9999 -9999 -9999 -9999 -9999 -9999 -9999 -9999 -9999 -9999 14.6345590844866 20.3864587981923 22.9186253391723 38.7031226457859 46.9627877317127 51.9718832763543 61.1180828467485 62.1116678399057 54.7194865589518 44.4085760809106 33.8140715518981 20.6664596129391 15.4848979952477 11.9169644258123 -9999 -9999 -9999 -9999 -9999 -9999 -9999 -9999 -9999 -9999 -9999 -9999 -9999 -9999 6.90862067632802 11.1255054835587 17.941961578852 27.5225224051699 42.0013867086486 59.2902614811707 86.7173626452722 141.044428112872 228.459681654828 280.59997211861 336.209998072372 408.916930333078 517.907063729872 683.957335893942 663.544340009713 612.300042740563 571.762352447415 530.960092403085 464.785134131143 396.059199612215 353.526213115597 315.891497479474 280.029811677809 275.623937488516 272.023460781972 236.35755173686 247.316075310224 253.307895878997 239.45661259401 236.868460865936 231.173809250659 261.801038451157 255.093790394904 253.715561389596 279.790968903862 300.871925818933 290.442004384275 263.959034187576 249.989748647196 252.118028806471 249.110801155168 250.787641341953 247.248556353727 250.454138675869 253.840273614978 253.58379663115 254.90444032432 258.925679589647 264.909354391315 270.492357250768 274.490750192024 282.190270341835 287.321602409203 300.937025236465 307.041477665584 338.483468431254 389.877561113091 385.138950987384 357.508119953133 320.688825858083 293.19198273509 292.084474125455 328.097897168686 319.900415686711 302.355785644979 301.075452562957 288.241248342274 320.432534403539 294.905433880744 273.47640996681 281.606097345042 314.582575738107 292.60317153515 278.666883869293 278.937023624558 262.654329109483 245.414874158018 244.993980240131 244.915511860135 237.052994042904 250.680662105656 261.092640074293 292.56550532667 288.276515668258 313.424159494256 384.713984841523 396.900266648663 372.274896707216 347.574309815235 332.479034532235 331.838393662329 337.54614898666 320.608522523464 324.081611744651 312.444687650688 307.330425694229 317.554327653083 308.860869327577 304.49342133134 304.672915857132 301.956010655517 294.340648106989 295.546157885486 304.999655417043 323.25637596012 334.528971530991 359.891007777089 370.954697391878 332.051738486436 323.138058498298 311.182449138898 300.640590993033 410.05859252703 448.269524509849 300.240630796681 276.718471107438 260.179152421558 234.257948096607 198.349217957431 177.318171778353 158.917713529482 172.647689313122 148.075958650338 127.29843357059 121.380611928787 118.386747836858 112.354060261639 108.098592306725 109.382279054864 126.436501518443 151.556469494976 207.716107478119 233.197033221493 260.794174710789 340.529032877535 238.749946231767 181.499185432846 141.53320869468 105.755375953531 78.3769039047712 75.3445737880354 102.982401190352 108.469443604026 75.1706991435314 52.9003119556741 57.4989889830869 47.4277414783762 41.4177481570865 56.1661536051014 40.385048386496 24.2937443208478 12.7705266408398 5.18354100698668 3.46055742805197 2.32141416548435 1.94714726972018 1.24978778369213 1.07760166014302 1 -9999 -9999 -9999 -9999 -9999 -9999 -9999 -9999 -9999 -9999 -9999 -9999 -9999 -9999 -9999 -9999 -9999 -9999 -9999 -9999 -9999 -9999 -9999 -9999 -9999 -9999 -9999 -9999 -9999 -9999 -9999 -9999 -9999 -9999 -9999 -9999 -9999 -9999 -9999 -9999 -9999 -9999 -9999 -9999 -9999 -9999 -9999 -9999 -9999 -9999 -9999 -9999 -9999 -9999 -9999 -9999 -9999 -9999 -9999 22.2754124612508 -9999 -9999 -9999 -9999 -9999 -9999 -9999 -9999 -9999 -9999 -9999 -9999 -9999 -9999
-9999 -9999 -9999 -9999 -9999 -9999 -9999 -9999 -9999 -9999 -9999 -9999 -9999 -9999 -9999 -9999 -9999 -9999 -9999 -9999 -9999 -9999 -9999 -9999 -9999 -9999 -9999 -9999 -9999 -9999 -9999 -9999 -9999 -9999 -9999 -9999 -9999 -9999 -9999 -9999 -9999 -9999 -9999 -9999 -9999 -9999 18.6860491788958 20.4891652026171 16.0712081083033 18.1276937091141 17.0477627780218 24.6684127802039 20.4801584251695 14.4382381678556 25.8283663519661 15.8228165821744 -9999 -9999 -9999 -9999 -9999 -9999 -9999 -9999 -9999 -9999 -9999 -9999 -9999 -9999 -9999 -9999 8.37560338989994 8.97155135139438 14.7843134603923 27.751251277091 44.7748721222696 73.112027312263 97.539223548459 132.500190138709 217.843694106058 305.725274423744 453.34420129693 494.853173547781 568.831735932882 817.03308835084 754.637391420913 667.674133989374 629.069081251309 613.915568438445 588.791681507117 513.733235965686 438.811485552166 409.095344548201 351.361049235014 332.797296858732 301.803014689786 262.823805546227 273.259478979121 272.161167966238 253.98110879167 239.147153435186 251.447487194442 269.054214818381 264.446914623529 265.221566959861 299.286221582249 319.924669715909 308.134188944824 286.096112595176 272.301553976963 281.798771946274 275.105884861133 272.680458376489 270.175150480188 268.996608266489 268.471800629179 267.60414334327 268.565907832204 266.473993062185 268.675976854246 275.761470035625 279.908642383833 281.822517462996 286.96933846306 297.406146167907 320.057312099676 335.227188090205 338.546567064776 327.027490623716 321.388599227067 312.160338945604 292.858922076963 277.419893281763 296.464161288136 299.552414766848 283.714913984555 266.81426530433 257.11953505983 259.550110807083 245.587523911357 246.342108931219 260.461500370703 292.474522167726 299.86762262627 292.238228792427 278.200391666407 261.908573048893 248.994734702144 237.119969251724 232.976884840538 234.01463111001 251.01887664764 249.194713522992 273.327013974267 292.173476066108 347.66269920436 394.452648635195 396.423833482186 369.463521294483 351.522421122163 336.172224831663 350.702762587813 356.931905847347 344.436561134959 330.435039785557 314.020505355226 315.452694680939 317.217885194753 313.213186970122 314.777323151911 312.106408250114 304.740180552439 302.37940852323 306.78362784908 343.103831255943 370.347806519885 350.087677072913 367.813222579585 378.069730419695 349.553928858052 355.811178577672 321.185291516294 319.9776231804 371.752069839538 319.463220125855 281.242776845263 266.792733549047 240.706802618319 222.79848320706 199.410672306946 175.445804108129 155.709446358376 144.107343740281 134.447022739503 125.196677583024 123.838658202054 118.363404060268 112.830666584627 118.750869516024 115.650988553538 101.052382467011 123.981170222835 254.022007751546 299.041211608794 264.015903509748 309.152193032179 323.065568674203 237.419137515335 153.168154343362 110.844673716806 87.9879899500384 73.2279609300047 68.8699337451229 71.4286905757105 60.8969432637902 53.2211113819449 68.2037163438737 72.3681047139241 53.2025673148869 90.1887428141079 86.1130315870392 41.8232969050163 18.4167720101102 7.51943113668207 2.49011911940876 3.54564101500792 2.19560154621464 1 1 1 -9999 -9999 -9999 -9999 -9999 -9999 -9999 -9999 -9999 -9999 -9999 -9999 -9999 -9999 -9999 -9999 -9999 -9999 -9999 -9999 -9999 -9999 -9999 -9999 -9999 -9999 -9999 -9999 -9999 -9999 -9999 -9999 -9999 -9999 -9999 -9999 -9999 -9999 -9999 -9999 -9999 -9999 -9999 -9999 -9999 -9999 -9999 -9999 -9999 -9999 -9999 -9999 -9999 -9999 -9999 -9999 -9999 -9999 -9999 -9999 -9999 -9999 -9999 -9999 -9999 -9999 -9999 -9999 -9999 -9999 -9999 -9999 -9999 -9999
-9999 -9999 -9999 -9999 -9999 -9999 -9999 -9999 -9999 -9999 -9999 -9999 -9999 -9999 -9999 -9999 -9999 -9999 -9999 -9999 -9999 -9999 -9999 -9999 -9999 -9999 -9999 -9999 -9999 -9999 -9999 -9999 -9999 -9999 -9999 -9999 -9999 -9999 -9999 -9999 -9999 -9999 -9999 -9999 -9999 -9999 -9999 -9999 13.7657799004372 15.6600216442552 13.8056500349053 6.84927554450896 15.5343099517594 12.2713248965318 -9999 -9999 -9999 -9999 -9999 -9999 -9999 -9999 -9999 -9999 -9999 -9999 -9999 -9999 -9999 -9999 -9999 -9999 6.06190889935166 8.74311871932749 17.6169553524968 30.2633097907971 52.9811393042775 109.228813767669 164.255786384156 222.704558940352 272.563478592387 344.526009833621 398.681865817798 617.43645087733 860.980471230763 919.132687900169 794.611468189226 699.240612284859 653.816172581685 565.95607744472 533.670693192063 514.347478982618 459.685871908828 401.552553325454 352.631598261717 324.541837124921 314.775246526369 311.446716681815 301.012807057047 277.602854287287 256.639286070025 257.27662299883 284.360798603023 297.897189776882 298.338027851955 296.491227137351 303.726149089892 344.311521383691 357.505977667357 327.083372475151 316.252645127797 317.48686660307 316.530902821802 307.406805763817 307.960970915482 300.478874013932 282.64983778827 287.458546390186 286.86584349504 287.88663157063 295.903175433526 299.191902260061 295.360688980243 307.770703025126 303.003145581093 319.591686847585 319.239251642669 313.305839065926 306.780536464343 300.639744895254 289.51572351279 289.397042970255 279.819049786483 268.523499052428 280.866283538313 269.654863986385 262.745466961317 268.554015320138 246.957888569623 235.637359584155 229.966360946898 241.588206173286 250.746784734121 254.888228182242 270.145402988007 283.665084402545 273.660589322577 262.369294307325 256.937606211684 243.825168215956 231.398375738817 224.496475092744 233.302942112606 233.331710694265 248.89835160351 279.220432681955 316.565249114188 362.444412847942 381.695641732366 369.241071874707 359.508128109749 360.208006553578 378.347739227745 377.428382966443 384.921235933784 351.630418027737 329.715005524867 329.579285748688 326.550107208523 320.569316050781 321.679860157033 316.682920668275 321.174280080561 338.086941845806 352.428172601591 370.446818595084 373.368493642389 375.576765838187 368.263436721274 390.42804926031 437.57323631465 385.442096741778 340.938847546416 335.992291427811 352.991771721103 313.835575495096 293.919187713495 268.484360338765 244.109021265062 223.411281347739 223.143650271253 208.533309923098 167.189421729396 143.043450754668 135.163761597786 146.694270376572 148.835076517742 155.106641726323 157.226814104535 161.995562998935 186.701408597944 171.98909713267 102.792111864535 102.679688206127 254.21147316623 327.537830372358 306.862977671083 342.50866951757 334.72088151982 181.543713296233 127.194722678311 111.598843149201 117.263562687514 103.444900231253 82.3582200181188 65.3770530754102 80.4015858297787 131.133714860999 145.860822752585 82.6769940730038 76.1869568148867 109.750300394328 54.2412660986565 21.3381017147228 13.9301507130641 8.42874987744517 6.64361026487069 4.83032894096726 2.08882040297852 1 1 2.97994081660749 -9999 -9999 -9999 -9999 -9999 -9999 -9999 -9999 -9999 -9999 -9999 -9999 -9999 -9999 -9999 -9999 -9999 -9999 -9999 -9999 -9999 -9999 -9999 -9999 -9999 -9999 -9999 -9999 -9999 -9999 -9999 -9999 -9999 -9999 -9999 -9999 -9999 -9999 -9999 -9999 -9999 -9999 -9999 -9999 -9999 -9999 -9999 -9999 -9999 -9999 -9999 -9999 -9999 -9999 -9999 -9999 -9999 -9999 -9999 -9999 -9999 -9999 -9999 -9999 -9999 -9999 -9999 -9999 -9999 -9999 -9999 -9999 -9999
-9999 -9999 -9999 -9999 -9999 -9999 -9999 -9999 -9999 -9999 -9999 -9999 -9999 -9999 -9999 -9999 -9999 -9999 -9999 -9999 -9999 -9999 -9999 -9999 -9999 -9999 -9999 -9999 -9999 -9999 -9999 -9999 -9999 -9999 -9999 -9999 -9999 -9999 -9999 -9999 -9999 -9999 -9999 -9999 -9999 -9999 -9999 -9999 -9999 -9999 -9999 -9999 -9999 -9999 -9999 -9999 -9999 -9999 -9999 -9999 -9999 -9999 -9999 -9999 -9999 -9999 -9999 -9999 -9999 -9999 -9999 -9999 -9999 18.9974202623468 24.3815077115563 42.1186796793641 76.7478666631644 144.596675109476 233.764324524055 316.283109705113 402.980128535663 421.126265381053 500.642083845507 655.660467138835 773.72571030798 739.993097144269 682.786674688752 613.427336577731 592.20984611802 546.904246019604 488.112861751552 465.224303444448 447.740271947673 416.653933077494 384.339910290144 353.687634901671 332.616528943297 304.067851155268 286.944277763954 276.236171593371 276.812591996966 281.856414988883 303.783650648831 343.352028717559 359.730885667503 355.561508539088 351.751582564604 382.735665971742 412.750985676148 393.115178098306 390.879704842908 394.974247969103 396.261066318521 357.467072690512 350.115107042526 327.371681009934 300.856489228026 298.959872317368 301.088432392419 298.536229385016 323.131743289666 316.620440926699 321.19429113777 338.976948440253 343.225776629381 342.362596486192 346.183028985416 331.376803661641 306.910252062083 289.690851607597 278.061510404945 272.010519501232 267.80742011565 261.362445487025 267.029287718571 259.674661482966 247.313832742302 242.954357282541 248.887425865387 233.267711499686 225.409319787387 238.635924794834 248.089201505471 266.527899195966 279.986420554847 276.593673588011 267.89534342063 270.748581291493 276.991784754651 253.354682046048 237.838130817645 224.677624477868 224.839866617073 229.512199608842 246.139237090939 254.393493028051 281.713957894746 327.025897888905 380.293099530212 388.791946205979 393.299922147868 397.546387277848 396.676998254572 408.921494245321 414.435509204566 375.70855732511 370.186605452381 379.13448160652 370.307995099127 360.216107461184 350.326794313375 351.822926000072 372.378427301383 402.212445742733 392.995978677663 357.86003486362 353.252878648208 368.162062963769 442.857949325925 531.401689099326 613.142541114605 390.940572752803 318.894118446069 325.883125745432 327.276821881801 293.241389916329 276.901377286296 275.69954093571 264.310869626659 232.720006787195 213.730226957819 209.447919663229 180.751104467105 161.395274650975 142.312543540375 207.984811777046 284.74105287232 311.460417102615 311.491777724783 357.279676085602 367.777559717007 401.140578020422 238.375630107508 165.771235890026 121.625211299908 191.632420015978 181.408802906099 258.641838958202 396.125208582754 421.595400208732 280.30106908238 203.532329624775 154.58530952043 141.881949107847 120.618461115513 93.3451597533796 94.4522658119654 103.484221150289 97.5054050346834 60.9064596158188 89.2745999347927 46.526487559406 54.219574695275 40.9331454786267 6.71430132305492 7.75149138344503 5.84657137220962 3.89725176559833 1.58400327264586 1 -9999 -9999 -9999 -9999 -9999 -9999 -9999 -9999 -9999 -9999 -9999 -9999 -9999 -9999 -9999 -9999 -9999 -9999 -9999 -9999 -9999 -9999 -9999 -9999 -9999 -9999 -9999 -9999 -9999 -9999 -9999 -9999 -9999 -9999 -9999 -9999 -9999 -9999 -9999 -9999 -9999 -9999 -9999 -9999 -9999 -9999 -9999 -9999 -9999 -9999 -9999 -9999 -9999 -9999 -9999 -9999 -9999 -9999 -9999 -9999 -9999 -9999 -9999 -9999 -9999 -9999 -9999 -9999 -9999 -9999 -9999 -9999 -9999 -9999 -9999
-9999 -9999 -9999 -9999 -9999 -9999 -9999 -9999 -9999 -9999 -9999 -9999 -9999 -9999 -9999 -9999 -9999 -9999 -9999 -9999 -9999 -9999 -9999 -9999 -9999 -9999 -9999 -9999 -9999 -9999 -9999 -9999 -9999 -9999 -9999 -9999 -9999 -9999 -9999 -9999 -9999 -9999 -9999 -9999 -9999 -9999 -9999 -9999 -9999 -9999 -9999 -9999 -9999 -9999 -9999 -9999 -9999 -9999 -9999 -9999 -9999 -9999 -9999 -9999 -9999 -9999 -9999 -9999 -9999 -9999 -9999 -9999 -9999 17.5090874068508 29.3366693507956 48.386093042926 82.3520868389287 173.49443210365 275.486511285226 338.492330993833 406.610138646131 519.030425744761 703.98168734615 790.507625814098 728.379578615348 682.355779768992 623.260065759396 585.287340098141 525.923437863749 493.360896584347 461.307023043324 435.64737572754 430.776417469567 404.954247124687 364.386855549502 342.240722050594 321.929490418204 317.166491924446 309.57520864171 316.939863837292 345.225370311613 361.09073989164 432.392713400517 532.18642446915 565.205577565471 544.318086996923 548.990556137095 549.940370890355 582.036636483592 577.411592676422 586.434948226006 543.631243421649 504.930228285373 464.184760708664 406.027954512741 359.411071052781 328.741373799016 315.525613248836 323.150296485037 325.017736578283 332.170996052767 334.422788977802 349.878212575848 377.659673969996 387.22518028825 379.012735812374 379.059967518991 351.547929108735 328.458790849381 320.014468146732 303.098942391 290.062211851403 275.275404081623 261.542777088026 252.678738390961 245.681142911546 242.954236357278 237.666696104372 233.522825619051 220.931765761341 227.554970509992 237.26419701104 234.452848314511 248.829252071665 263.505689618692 254.364299294065 241.513486159677 268.174729151384 265.527652943219 252.224911657781 246.565754728636 225.785422602895 220.359236994186 227.588168671044 238.739913278982 250.6884702283 273.633451951477 311.6360478266 379.050358610265 408.995475755766 407.976556029084 387.232511161365 389.477001418808 439.738201730864 430.017200734828 369.666465488503 390.835826262301 394.598667604474 382.389955269295 377.954357469968 374.421447763394 391.832099050296 412.864095294998 433.938053044782 415.397461114554 383.145269268563 398.332767922449 386.353329077537 404.762203376789 631.784792751963 666.335414597354 441.091647368641 297.134310351169 351.455199752288 333.195913546137 293.995288671923 262.420227584798 251.814656620997 252.242744613292 232.700162417302 199.551652255305 176.874390185682 169.659239055488 155.175985821009 170.008345735119 284.646712488637 422.755934730782 415.494948540732 482.059149086435 540.119947162641 569.399376481208 541.111333943702 389.324165534524 379.279587611112 273.607428454143 256.208356337618 271.821176302725 185.640924252189 119.983603124557 208.057422761168 248.847799380035 297.643203628613 239.290474947256 134.404022051998 100.178195778957 75.9632167551753 46.292870935025 40.2125549653433 32.389373278654 25.8590078861109 32.1812475422154 23.4384349905575 26.803111266212 15.4447267888568 14.4750853701752 11.8254152690375 8.44795051677767 4.07967419719652 2.41572159277343 -9999 -9999 -9999 -9999 -9999 -9999 -9999 -9999 -9999 -9999 -9999 -9999 -9999 -9999 -9999 -9999 -9999 -9999 -9999 -9999 -9999 -9999 -9999 -9999 -9999 -9999 -9999 -9999 -9999 -9999 -9999 -9999 -9999 -9999 -9999 -9999 -9999 -9999 -9999 -9999 -9999 -9999 -9999 -9999 -9999 -9999 -9999 -9999 -9999 -9999 -9999 -9999 -9999 -9999 -9999 -9999 -9999 -9999 -9999 -9999 -9999 -9999 -9999 -9999 -9999 -9999 -9999 -9999 -9999 -9999 -9999 -9999 -9999 -9999 -9999 -9999
-9999 -9999 -9999 -9999 -9999 -9999 -9999 -9999 -9999 -9999 -9999 -9999 -9999 -9999 -9999 -9999 -9999 -9999 -9999 -9999 -9999 -9999 -9999 -9999 -9999 -9999 -9999 -9999 -9999 -9999 -9999 -9999 -9999 -9999 -9999 -9999 -9999 -9999 -9999 -9999 -9999 -9999 -9999 -9999 -9999 -9999 -9999 -9999 -9999 -9999 -9999 -9999 -9999 -9999 -9999 -9999 -9999 -9999 -9999 -9999 -9999 -9999 -9999 -9999 -9999 -9999 -9999 -9999 -9999 -9999 -9999 -9999 16.0402903922745 19.1061667302855 33.1316839519251 54.7720611875919 103.851429723076 208.469559340186 297.544565575503 357.35359290544 481.054095870825 566.446288349321 743.42950283904 766.589948481889 743.318074715114 700.39009993621 684.167206633873 630.891628387043 594.180711421972 549.851472270426 505.555087599296 468.999971628974 433.213092153996 412.284669812614 393.700234635054 379.7274048094 365.055746812931 354.605650724033 372.04305311406 450.072611188546 541.402404583338 604.472227991867 681.411460468968 690.837738610617 670.008199789562 642.664265145762 609.575958307086 600.490242488836 656.525705879843 661.550454372416 624.081029915792 604.620602503825 573.552758707149 540.078473492536 477.151939064008 399.538637455506 360.66444120939 359.335704386499 370.779572115232 374.221856523334 374.611899475952 386.24041360357 396.02583746726 416.068389597832 417.490466910522 408.943473633835 388.052076904999 374.277983157184 355.977807553291 351.55726574537 360.17047067542 367.050522774929 352.003460559097 321.547238425146 297.939247829643 269.538880974426 240.496807864192 228.64836997172 229.818902312667 217.781957191008 222.33145319358 226.208947663305 233.578916210801 242.222055823408 260.360011805197 259.819421493056 230.934539336003 232.959596604571 231.569205540525 237.527251780591 250.261174059403 230.981993733258 214.957835150014 224.191060386718 230.164291596795 245.854267795872 266.070477949038 289.507374987697 350.667696870664 417.242077651387 414.488562424218 371.026847620145 377.58923775399 454.601695472409 416.440386470381 392.000003869365 415.671468427258 400.86881479526 379.060863962818 380.327265330149 393.705518846721 406.421722500886 413.597456458264 428.219435973179 424.557763444512 406.959261997613 427.893552505544 442.278626569845 456.128394587057 678.85375395108 676.981240991551 469.872277781165 283.052660760692 309.214020660003 307.345061853815 280.054950066811 265.984350920069 253.375824752882 238.862776245997 212.529566879078 183.521956149526 166.10628858047 162.447536726302 185.574130730992 215.011021405687 381.809820105934 521.855855184494 526.73000393874 553.096917314331 580.65040980681 552.5956586684 572.23595245208 526.350886154662 437.54808688828 348.181739285705 420.823244964724 241.907028755944 170.22986621484 106.473158241859 71.1863551008763 78.2821971367711 118.007268007664 132.675175755817 99.8726629569806 63.2870791084527 51.4269080039463 50.4271550521978 37.8665098853768 27.3292093079892 23.1598812704321 27.150209772873 28.5634945786556 31.9121081297961 24.3960195545679 19.0893616093779 13.0572104107379 7.57569408223056 2.75428365696471 1 -9999 -9999 -9999 -9999 -9999 -9999 -9999 -9999 -9999 -9999 -9999 -9999 -9999 -9999 -9999 -9999 -9999 -9999 -9999 -9999 -9999 -9999 -9999 -9999 -9999 -9999 -9999 -9999 -9999 -9999 -9999 -9999 -9999 -9999 -9999 -9999 -9999 -9999 -9999 -9999 -9999 -9999 -9999 -9999 -9999 -9999 -9999 -9999 -9999 -9999 -9999 -9999 -9999 -9999 -9999 -9999 -9999 -9999 -9999 -9999 -9999 -9999 -9999 -9999 -9999 -9999 -9999 -9999 -9999 -9999 -9999 -9999 -9999 -9999 -9999 -9999
-9999 -9999 -9999 -9999 -9999 -9999 -9999 -9999 -9999 -9999 -9999 -9999 -9999 -9999 -9999 -9999 -9999 -9999 -9999 -9999 -9999 -9999 -9999 -9999 -9999 -9999 -9999 -9999 -9999 -9999 -9999 -9999 -9999 -9999 -9999 -9999 -9999 -9999 -9999 -9999 -9999 -9999 -9999 -9999 -9999 -9999 -9999 -9999 -9999 -9999 -9999 -9999 -9999 -9999 -9999 -9999 -9999 -9999 -9999 -9999 -9999 -9999 -9999 -9999 -9999 -9999 -9999 -9999 -9999 -9999 -9999 -9999 21.4489248725807 24.6010239669299 36.3491395061899 78.4421928288387 180.684425116989 268.265397796641 310.379318480832 376.535717963754 468.96236667689 616.179915953365 695.850350884857 699.031060570372 739.814677320056 766.357525954645 763.639675698181 736.097965872429 731.289206315821 646.918983483878 575.645847892924 530.499733447869 485.631754226238 455.873320869359 444.218392012138 456.249832089921 474.566625565983 494.041082433173 548.230146523333 705.325177847241 706.440228124902 658.303124537414 639.318112448356 639.546473512168 634.387936194044 621.857219736396 604.671881241758 579.256761853317 598.894838539765 646.777747350372 627.743666664046 604.633892480993 588.295610370251 562.629762854706 523.038417278006 476.539253631511 444.442637754288 431.843808063262 442.444381316234 445.803797088259 439.584846932642 444.398997450619 441.570548845794 433.145361524812 421.245188589832 413.198703717962 391.920025348826 361.436234204329 337.203354552599 332.540929907982 359.034743497425 404.22399938181 405.938507284999 382.392969278035 377.610060561799 327.511336887651 273.625584815517 242.465213085606 221.385287334217 217.29363053047 221.688495171341 223.368776661116 233.190005409215 234.862847395867 254.13024721892 270.670435474613 241.691746014643 228.59359544892 217.884041202833 233.657130105263 242.398390376745 231.515326910839 212.810363415026 222.254791952401 232.93922429022 248.597028375308 272.749840855069 297.311151713209 345.428505122051 374.80549574794 373.74064592919 356.996435317779 369.925460101265 377.048629793808 381.803891771736 414.907282159788 445.94089354167 416.865262463851 402.910915003468 390.523565101578 405.025679196686 428.987189598513 434.303374156348 440.79104407779 448.626280721254 441.694832101852 470.675231941375 506.790891370805 515.165287097294 735.175955061685 697.179015102601 438.601941967321 282.945773453808 265.98507560619 264.746527895715 245.260266807946 245.890165916464 241.221087862252 235.213357105155 206.73855954179 178.41737707388 172.622007327403 194.470732633998 283.246640839247 343.348335541401 460.20100715968 558.679645783596 662.225177137601 700.223606993019 684.996618392749 633.312390838127 616.280496933917 532.58155702721 370.419389799522 277.536017768741 322.760939129608 193.041805618447 139.156555649615 129.583130693547 125.730182921534 84.1765672751096 55.3312598599881 53.2812065373046 48.615368181041 44.5263592485906 66.3288844538333 90.2593539375469 60.902470008412 29.6988831900949 20.8547899044905 24.2711011559329 24.8570961439235 23.4003605356167 19.4016431504418 15.1143842448084 9.30722299825606 4.55575838101727 1.91624473798624 1 -9999 -9999 -9999 -9999 -9999 -9999 -9999 -9999 -9999 -9999 -9999 -9999 -9999 -9999 -9999 -9999 -9999 -9999 -9999 -9999 -9999 -9999 -9999 -9999 -9999 -9999 -9999 -9999 -9999 -9999 -9999 -9999 -9999 -9999 -9999 -9999 -9999 -9999 -9999 -9999 -9999 -9999 -9999 -9999 -9999 -9999 -9999 -9999 -9999 -9999 -9999 -9999 -9999 -9999 -9999 -9999 -9999 -9999 -9999 -9999 -9999 -9999 -9999 -9999 -9999 -9999 -9999 -9999 -9999 -9999 -9999 -9999 -9999 -9999 -9999 -9999
-9999 -9999 -9999 -9999 -9999 -9999 -9999 -9999 -9999 -9999 -9999 -9999 -9999 -9999 -9999 -9999 -9999 -9999 -9999 -9999 -9999 -9999 -9999 -9999 -9999 -9999 -9999 -9999 -9999 -9999 -9999 -9999 -9999 -9999 -9999 -9999 -9999 -9999 -9999 -9999 -9999 -9999 -9999 -9999 -9999 -9999 -9999 -9999 -9999 -9999 -9999 -9999 -9999 -9999 -9999 -9999 -9999 -9999 -9999 -9999 -9999 -9999 -9999 -9999 -9999 -9999 -9999 -9999 -9999 -9999 -9999 17.7603667746503 23.6007678061247 36.6912074640196 49.815755360034 106.210338442148 213.86021529132 308.983373470193 369.35262789333 432.815301061007 492.04901115003 626.644509792791 689.69866110963 651.677525491229 639.599866787312 651.76164550392 664.234007294892 659.583295998543 658.421342067205 649.350133875715 609.522688505314 576.171650146024 543.365818847735 501.836295544507 521.774943973192 584.436756698575 661.246885749439 673.453748844635 662.9645332156 718.858118446407 724.253304434108 680.057594971156 644.735015547778 621.959150748247 606.184654084851 597.601230587257 582.602298349974 570.429221981314 555.731202220663 581.75760746646 610.557089654877 615.083692144703 592.508362634258 569.421936606019 554.426537812129 540.171817898623 524.294293468929 504.269878877136 501.818296376211 498.474837755024 499.097285106222 495.853845733561 482.447712497984 468.655681724223 435.296627760347 413.09337719833 394.488189533758 363.051831804687 336.634970780439 319.553620644266 331.864085750573 353.575880925405 357.662689925386 342.654320972288 360.655108453583 342.060478223252 321.078463006026 282.593293476021 233.927247106472 215.227309431547 212.050704099287 206.744494035145 215.721049566993 224.784289312758 230.785056412187 246.612371842798 252.449963497933 237.476903154292 216.433465234029 228.883543694571 228.291863999702 221.290095687067 207.768331751166 215.791427767994 226.703510005774 243.59737246778 269.084590460266 305.923272917126 341.837504233097 370.070186297643 365.256538725206 346.653265444154 370.103801852799 365.535145743946 368.202431074197 402.224952482742 502.266784166388 495.398037885159 462.413080569995 428.227933008495 419.016086477174 447.800085856457 455.805158497778 459.036564691777 469.99930704726 469.989948906489 482.469441864023 508.034448400004 511.766682940262 687.505937852137 724.020293327659 366.73127286398 270.628706929521 261.684805389048 243.566806588944 223.773416452131 216.097026019598 207.382133489635 201.744169654211 199.670114402262 194.713505192209 185.336573195324 221.566620080856 372.218913926998 568.383086915728 611.190397090257 588.58316016557 634.557260270052 710.418851769158 723.958322590644 669.143966500712 647.081256573197 504.084407468113 364.106872599188 382.503969424894 355.083944523203 213.101106698124 192.200208177497 133.090286789901 199.609692450703 124.184536728052 69.0216366598356 69.1072693824169 58.882002584451 52.2658268114368 64.5249466819548 65.1747615416836 46.7363739509451 28.0602735134568 18.3001685712369 16.7125272629714 15.9832272531602 18.5963841768681 17.7465109046242 14.3101052208873 7.60740253367795 2.38186184801862 1 1 -9999 -9999 -9999 -9999 -9999 -9999 -9999 -9999 -9999 -9999 -9999 -9999 -9999 -9999 -9999 -9999 -9999 -9999 -9999 -9999 -9999 -9999 -9999 -9999 -9999 -9999 -9999 -9999 -9999 -9999 -9999 -9999 -9999 -9999 -9999 -9999 -9999 -9999 -9999 -9999 -9999 -9999 -9999 -9999 -9999 -9999 -9999 -9999 -9999 -9999 -9999 -9999 -9999 -9999 -9999 -9999 -9999 -9999 -9999 -9999 -9999 -9999 -9999 -9999 -9999 -9999 -9999 -9999 -9999 -9999 -9999 -9999 -9999 -9999 -9999 -9999
-9999 -9999 -9999 -9999 -9999 -9999 -9999 -9999 -9999 -9999 -9999 -9999 -9999 -9999 -9999 -9999 -9999 -9999 -9999 -9999 -9999 -9999 -9999 -9999 -9999 -9999 -9999 -9999 -9999 -9999 -9999 -9999 -9999 -9999 -9999 -9999 -9999 -9999 -9999 -9999 -9999 -9999 -9999 -9999 -9999 -9999 -9999 -9999 -9999 -9999 -9999 -9999 -9999 -9999 -9999 -9999 -9999 -9999 -9999 -9999 -9999 -9999 -9999 -9999 -9999 -9999 -9999 -9999 -9999 -9999 -9999 32.2147868068795 35.172614864829 52.2733504451802 68.1780871758204 113.851771436813 191.100309053859 242.646955375855 304.956955666235 358.925170516795 460.738316465454 616.796289512852 689.008164169016 664.137950936657 610.819764210451 593.619519253669 593.887121463266 604.172824364083 604.401009572609 601.858832863067 611.255654220189 620.640325641454 606.321218193286 565.731003413986 579.439921221512 588.687608800869 597.967570699116 611.192980848717 605.501779445667 662.541883158608 706.788673425452 671.424669240209 643.412851658212 619.294932072751 594.362146688106 580.849527964581 569.363773608021 557.113916959097 547.927546832145 541.507462908055 569.379774790536 582.966372096848 590.809911682845 570.072459754835 549.158642476848 548.960734054676 536.336411775421 532.6822197969 533.289358167659 532.394330044715 533.346661387333 532.897943429482 523.913446654039 497.902114908523 457.626219326576 408.968844905677 368.286405662309 352.73757283369 344.789174422041 321.872594080226 308.29367580369 304.415663630265 304.285505219882 303.078444024716 328.611880185371 311.237836736089 312.727524576133 320.42920275542 282.954706018149 234.78105069904 215.965751679062 200.05942934308 202.597406186381 216.979872650487 223.361300402957 228.95067320494 242.286962225481 260.600485274615 240.885328961673 213.628405277206 212.051338473811 210.250014250528 203.467008026049 210.762666929047 223.859966272375 252.723462491757 311.099112195866 331.720585338571 334.716567029336 365.246617817433 361.185370535249 340.863934045669 387.223071304199 376.547930209391 375.885089858129 399.840080084886 553.788456708149 634.234107827868 608.696041414167 545.898336958688 503.794093825829 562.431086687465 575.369964447005 558.882701413634 545.417738143686 520.107166733184 516.078832417066 518.244640698817 469.789668638157 523.952484079452 487.520943420416 309.597157083402 270.224039901911 283.994283564427 270.593147472931 226.769320185879 216.312235645447 197.589826425813 191.082785535021 210.169656669282 215.893344793809 206.194518559234 262.789017407613 351.479754408744 555.408212096857 606.421065304511 619.205959145954 602.654018630558 695.044393992959 741.539046747484 721.264099313209 703.632120744123 562.681412810794 331.876995822625 320.591922716906 302.066304922897 224.647490809103 215.167614984703 157.288105685886 157.110613816675 109.838624714996 99.2460326791188 86.8529491570399 58.4522492100791 51.3447067670027 47.6811734005282 33.0578053655846 19.5558021577098 16.0220333056771 14.965000846332 11.2707670412316 8.87644732700602 9.98676776429205 12.1991572735224 10.3907606891992 5.25466866290531 1 -9999 -9999 -9999 -9999 -9999 -9999 -9999 -9999 -9999 -9999 -9999 -9999 -9999 -9999 -9999 -9999 -9999 -9999 -9999 -9999 -9999 -9999 -9999 -9999 -9999 -9999 -9999 -9999 -9999 -9999 -9999 -9999 -9999 -9999 -9999 -9999 -9999 -9999 -9999 -9999 -9999 -9999 -9999 -9999 -9999 -9999 -9999 -9999 -9999 -9999 -9999 -9999 -9999 -9999 -9999 -9999 -9999 -9999 -9999 -9999 -9999 -9999 -9999 -9999 -9999 -9999 -9999 -9999 -9999 -9999 -9999 -9999 -9999 -9999 -9999 -9999 -9999 -9999
-9999 -9999 -9999 -9999 -9999 -9999 -9999 -9999 -9999 -9999 -9999 -9999 -9999 -9999 -9999 -9999 -9999 -9999 -9999 -9999 -9999 -9999 -9999 -9999 -9999 -9999 -9999 -9999 -9999 -9999 -9999 -9999 -9999 -9999 -9999 -9999 -9999 -9999 -9999 -9999 -9999 -9999 -9999 -9999 -9999 -9999 -9999 -9999 -9999 -9999 -9999 -9999 -9999 -9999 -9999 -9999 -9999 -9999 -9999 -9999 -9999 -9999 -9999 -9999 -9999 -9999 -9999 -9999 -9999 -9999 -9999 77.2892804112185 73.0036843422881 77.2224196764481 112.987810047166 177.988087301754 248.726994804534 267.656981270386 366.285493021839 455.784085312278 598.067200697439 652.445358021703 649.976932318521 652.11201436065 606.810040914307 566.367644021734 553.870820490366 561.663776939754 566.641064261423 560.409700799624 570.83927137054 585.234910649561 602.126193376591 599.265833763029 593.195333823721 571.648234895186 552.295739827043 554.871165858476 595.394960455583 698.435812753048 686.661661549246 674.100233504033 665.223677994248 633.612720505828 605.840422294699 592.487573514152 583.128143294805 574.179306021018 559.276353770761 538.78150424291 536.313678942256 539.709088767632 578.991969904788 571.192996418974 545.625392040803 536.710807396341 527.023851389097 523.843020484702 521.145940585497 524.688510705949 533.979490978042 533.050029540185 532.243422860358 496.396191881389 461.889729859766 445.046142364336 394.99938778181 362.277667644154 333.683573508183 320.081585176326 304.255837081862 292.68386374977 286.48147972861 287.594259901188 302.05880687967 295.620135243226 282.173698969901 310.770790982134 321.120291139253 254.937708015384 225.934304303671 202.595232282015 195.969888510142 206.267984705883 210.527953729676 218.640439795085 226.169918984782 249.085399188046 240.587345834339 201.783120768249 196.837077025349 200.051362057678 200.679162305044 211.677844727538 232.118618787265 263.36415132931 331.830690562951 334.337298158942 323.188321106643 343.05260722429 335.197997908668 336.021032891541 384.273088585252 364.096374488075 362.59879120356 387.675101477471 479.888736285791 649.645111190414 685.747633654377 692.133506623981 628.086687412634 636.562292405085 652.626231364939 638.7129816443 616.025259998663 569.401765541377 551.382503747153 527.85360690025 448.456048234942 399.287769614624 351.850290767804 298.781342544748 265.394235913208 280.377625291946 276.661464977133 272.340327247152 256.292764145519 210.82937509553 206.610234107481 225.384138935734 236.819088378995 263.701640094916 366.197744645698 432.419983958419 427.542831547532 552.882537908731 691.235880226264 658.209737928326 726.547856675438 774.370331989378 770.666131789164 747.018518876529 475.244746859137 227.063600522819 199.721131495329 185.0695414033 208.74336041323 171.335499043187 159.590824066908 140.300822375246 96.0999986874779 130.744137391849 94.9042633812416 49.1670915388779 40.1615951976247 32.0282171665075 17.3544775740691 11.2821488113149 12.0163795543991 11.7507158139562 8.89953563894656 6.62645832340118 5.05489420400504 4.10711191368711 3.9299940867039 3 -9999 -9999 -9999 -9999 -9999 -9999 -9999 -9999 -9999 -9999 -9999 -9999 -9999 -9999 -9999 -9999 -9999 -9999 -9999 -9999 -9999 -9999 -9999 -9999 -9999 -9999 -9999 -9999 -9999 -9999 -9999 -9999 -9999 -9999 -9999 -9999 -9999 -9999 -9999 -9999 -9999 -9999 -9999 -9999 -9999 -9999 -9999 -9999 -9999 -9999 -9999 -9999 -9999 -9999 -9999 -9999 -9999 -9999 -9999 -9999 -9999 -9999 -9999 -9999 -9999 -9999 -9999 -9999 -9999 -9999 -9999 -9999 -9999 -9999 -9999 -9999 -9999 -9999 -9999
